# .PCD v0.7 - Point Cloud Data file format
VERSION 0.7
FIELDS x y z
SIZE 4 4 4
TYPE F F F
COUNT 1 1 1
WIDTH 1255
HEIGHT 1
VIEWPOINT 0 0 0 1 0 0 0
POINTS 1255
DATA ascii
0.024320757 0.031513348 0.00085682858
0.025787022 0.031104418 0.00040526129
-0.023596192 0.032505792 0.00031619039
-0.022628292 0.032771334 0.00015172572
-0.021083659 0.032798111 0.00067916239
0.02346918 0.032563068 0.00016748486
0.024267381 0.032209605 0.00054455071
-0.022266785 0.03332201 0.00038780659
-0.021436065 0.033714771 0.0005711111
-0.020794868 0.03318119 0.00090871955
-0.019747548 0.033520982 0.0009087791
0.019497599 0.033593353 0.00090874929
0.020736584 0.033298355 0.00070790085
0.021452155 0.03362982 0.00072657882
0.022232842 0.033082135 0.00062571187
-0.020464331 0.034864862 0.0005204808
-0.019313095 0.034391835 0.00057474297
-0.018176543 0.034753978 0.00090874929
0.018478064 0.034659769 0.00076573377
0.019218061 0.034410149 0.00036142999
-0.018512942 0.03536474 0.00068217283
-0.017213916 0.035391349 0.00094854756
0.01693102 0.03532197 0.00089614425
0.017570749 0.035615783 0.00067945709
0.018496437 0.035498217 0.00050213374
0.019573731 0.035117075 0.00018239953
-0.017457485 0.036409516 0.00057213817
-0.016399544 0.036603551 0.00049107632
-0.015806129 0.036595881 0.00052453397
-0.014728317 0.036372155 0.0009087642
0.01307272 0.03696331 0.00011305651
0.014457952 0.036520436 0.00090874929
0.015697611 0.036623698 0.00053049467
0.016594296 0.03661634 0.00073198107
0.017148776 0.036387507 0.00062930229
-0.015359277 0.037028901 0.0009087791
-0.014414737 0.037464224 0.00053265417
-0.013543146 0.037308354 0.00065648521
-0.012636724 0.037625443 0.00079567597
-0.011813262 0.037228286 0.00090874929
-0.01086858 0.037647501 2.0341482e-05
-0.0090065785 0.037990749 0.00090874929
0.011544174 0.037374884 0.00090874929
0.012601574 0.037404776 0.00066990498
0.013447355 0.037509236 0.00087269273
0.014722705 0.037563175 0.00090871949
0.015136881 0.037053544 0.00090871949
-0.011392517 0.038333751 0.00061842392
-0.010631153 0.038404204 0.00071076804
-0.0096788201 0.038504511 0.00082759664
-0.0088046547 0.038173776 0.00090874929
-0.0066481717 0.038882315 0.00092778559
0.0066766539 0.038840141 0.0009086174
0.0086374246 0.038228311 0.00090873439
0.0095227435 0.038540095 0.00061621011
0.010536966 0.038463473 0.00082349079
0.011087784 0.038360626 0.00027174503
0.012158547 0.038024068 0.00090874935
-0.010123895 0.039057221 0.00094008725
-0.0095073571 0.039120413 0.00069121784
-0.0080231968 0.039265275 0.00064818794
-0.0073234816 0.039587609 0.00046268236
-0.0066698967 0.039407287 0.00054232025
-0.0058209612 0.039502863 0.00048547925
-0.004181121 0.039758377 0.00024393357
-0.0034822542 0.039534207 0.00071551348
-0.0029917546 0.03937763 0.00090874929
-0.0011060648 0.039732613 0.00055006682
-0.00025800947 0.039494395 0.00070867955
0.00042543298 0.039591379 0.000566217
0.0027973633 0.039354596 0.00077382295
0.0035384467 0.039651286 0.00055564899
0.004106136 0.039883681 0.0002772687
0.0056727729 0.039292879 0.00067108526
0.0064507006 0.039362386 0.00062298484
0.0075392397 0.039328896 0.00076823949
0.0086976774 0.039209966 0.000567846
0.0095313918 0.039157372 0.00070295599
-0.006353328 0.040036663 0.00070662546
-0.0045986217 0.040155225 0.0004913322
-0.0036143104 0.040133566 0.0007692122
-0.0013826238 0.040053338 0.00059988518
-0.00013505321 0.04004173 0.00048819371
0.00074260496 0.040047832 0.00090871949
0.0014806539 0.040057965 0.00029156776
0.0029604842 0.04004173 0.00048819371
0.003535497 0.040179227 0.00090874825
0.0043295859 0.040155418 0.00049116742
0.005853449 0.040006705 0.00043013878
0.0061682011 0.040055875 0.00047619551
-0.0070005246 -0.039671265 0.0010148073
-0.0064308704 -0.039311599 0.0013844623
-0.0043826434 -0.039443303 0.0017172901
-0.0033699614 -0.039318778 0.0015098816
-0.002060839 -0.039568268 0.001961471
-0.0013673424 -0.039265014 0.0016792483
-0.00043036992 -0.03940513 0.0017278062
0.00042779732 -0.039285608 0.0017575424
0.0013103727 -0.039388046 0.0017114449
0.0028635373 -0.039551049 0.0017088857
0.0033675134 -0.03938387 0.0015283137
0.004330148 -0.03931975 0.0017507517
0.0058943741 -0.039360128 0.0013708877
0.0063054287 -0.039262887 0.001421648
-0.010743856 -0.038314439 0.0015186737
-0.009839775 -0.038078904 0.0011318931
0.0094355941 -0.038009886 0.0010120645
0.010417998 -0.038301896 0.0017722766
-0.014666107 -0.037090514 0.0016976148
-0.013253655 -0.037451405 0.0015631436
-0.012519163 -0.037269033 0.0015018724
-0.011600041 -0.037661061 0.0017321631
-0.010682613 -0.037832212 0.0017265703
-0.0097131077 -0.03798179 0.0017359275
0.0096263494 -0.037742794 0.0011411216
0.010544098 -0.037816651 0.0017286339
0.011433553 -0.037715826 0.0015665925
0.012480986 -0.037267048 0.0013137102
0.013125356 -0.037833706 0.0015856959
-0.017329637 -0.036639437 0.0011218961
-0.016916247 -0.036491461 0.0018386538
-0.015378882 -0.036537811 0.0015091408
-0.01462493 -0.036612339 0.0010130927
-0.013275487 -0.036712989 0.0014376875
-0.012893427 -0.036776401 0.0014352137
0.012917651 -0.03687527 0.0013903724
0.014691509 -0.036666889 0.0016699198
0.015315144 -0.036418963 0.0014962737
0.016710609 -0.036616191 0.0017992514
0.017029105 -0.036401123 0.0010475453
-0.019320395 -0.035326764 0.0013036664
-0.018318234 -0.035406381 0.0013411138
-0.017827179 -0.035406124 0.001582481
0.016597345 -0.035992894 0.0019716369
0.018548474 -0.035407715 0.0015661966
-0.021133974 -0.034266949 0.0016508494
-0.019366376 -0.034585688 0.0016007026
-0.018245826 -0.034812767 0.0015141141
-0.01778353 -0.034902129 0.001112164
0.017799053 -0.034913562 0.0012416635
0.018529095 -0.034700714 0.0015140938
0.019125504 -0.034655623 0.0013997226
0.020383302 -0.034311634 0.0019164067
-0.021052659 -0.033275623 0.0013045089
-0.020393398 -0.033399645 0.0017635841
-0.019454567 -0.03394407 0.0015565846
0.019880729 -0.033388965 0.0015283618
0.020722549 -0.033602178 0.0013853583
0.021451334 -0.033193 0.0018065986
-0.023736132 -0.032064598 0.0017989182
-0.021836247 -0.032511309 0.001602191
0.020878941 -0.03269168 0.001252451
0.021676928 -0.032411043 0.0011465307
0.022947224 -0.032187883 0.0010185512
0.023578605 -0.032179117 0.0017716115
-0.024533844 -0.031215886 0.0016261634
-0.023351181 -0.031561181 0.0014097678
-0.022904161 -0.031970516 0.00160215
0.023434434 -0.031415824 0.001683112
0.024316544 -0.031440873 0.0015476643
-0.026240183 -0.030456403 0.0012410658
-0.025325209 -0.030546332 0.0015904859
-0.024788663 -0.030655656 0.0019632382
0.024924312 -0.030496992 0.0017473429
0.025292842 -0.030341608 0.0011819476
0.026081385 -0.030571515 0.001213924
0.027140044 -0.03023991 0.0016212016
-0.027331557 -0.029424474 0.0018730359
-0.026302317 -0.029062256 0.0013135634
0.026540194 -0.029595871 0.0017353464
0.027542938 -0.029186692 0.0017061634
-0.028402383 -0.028504133 0.0010513724
-0.027809083 -0.02847892 0.0017981014
0.027282272 -0.028370125 0.0015558561
0.028121941 -0.028493226 0.0010488457
-0.029348915 -0.027068149 0.0016004443
-0.028616639 -0.02759869 0.0014006321
0.027807422 -0.027858451 0.0018573403
0.028483048 -0.027320731 0.0014849833
0.029803745 -0.02714254 0.0014845075
-0.030321082 -0.026295014 0.0014669627
-0.029830165 -0.026573047 0.0014360138
-0.028806172 -0.02645104 0.0010333359
0.028853478 -0.026743107 0.0011746832
0.029769169 -0.026712673 0.0010342889
0.030039366 -0.026282577 0.0014641592
-0.031087235 -0.025068171 0.0016613752
0.029242376 -0.025576357 0.0015112066
0.030609913 -0.025572833 0.0015646406
-0.032239299 -0.02408048 0.0018824292
-0.031579465 -0.0242681 0.0015040431
-0.030668603 -0.024595737 0.0014929217
0.030211156 -0.024451166 0.0017661368
0.031472128 -0.024380518 0.0017082873
-0.032390304 -0.023522621 0.0012676236
-0.031765424 -0.023609538 0.0012775376
0.031564783 -0.023023587 0.0015838491
0.032049995 -0.023795841 0.0014000102
-0.033159479 -0.02240558 0.0016558424
-0.03230451 -0.022786949 0.0013081701
0.032483868 -0.022337902 0.0011705253
-0.034169711 -0.021215208 0.0018058128
-0.03361382 -0.021615719 0.0014535735
-0.032693133 -0.021735854 0.0015944263
0.033281285 -0.021591177 0.0014836764
0.034441449 -0.021459538 0.00165462
-0.034504332 -0.020257555 0.0017189106
0.034047164 -0.020211622 0.0016130982
-0.035225004 -0.01932472 0.0016467655
-0.034456432 -0.019249886 0.001630769
-0.033804853 -0.019495435 0.0010457821
0.034694057 -0.019330468 0.0013673909
0.035253976 -0.019608974 0.0018008822
-0.036246601 -0.01820121 0.0019427864
-0.035301153 -0.018446803 0.0013325614
-0.034623232 -0.018833525 0.0015774639
0.034777176 -0.018731683 0.0012767963
0.036127493 -0.018293392 0.0016937456
-0.036158204 -0.017733619 0.0018603089
-0.035239916 -0.017559318 0.0017050041
-0.034636926 -0.017642589 0.0010689986
0.034715697 -0.01765283 0.0015608331
0.035878427 -0.017475335 0.0015181238
-0.036380362 -0.016430059 0.0015526017
0.035523459 -0.016482033 0.0013475189
0.036149081 -0.016449302 0.001189585
-0.037078775 -0.015463328 0.0019780612
-0.036049802 -0.015480073 0.0010163542
-0.035906889 -0.015723951 0.0015233939
0.03591194 -0.015474677 0.0014482178
0.03672054 -0.015865382 0.0018699818
-0.037627075 -0.014232389 0.0012517823
-0.036516085 -0.014669945 0.0016852118
0.035979278 -0.014918288 0.0013930583
0.036538754 -0.014846087 0.0013884436
0.03702588 -0.013884515 0.0010905787
-0.038396712 -0.012668205 0.0017168617
-0.037668221 -0.012163012 0.0018883012
0.037754096 -0.012150553 0.0017663306
0.038320452 -0.01289409 0.0016668085
-0.039402947 -0.011441071 0.0015255176
-0.038093619 -0.011652211 0.0015957005
0.038404457 -0.011679234 0.0013452307
0.039009556 -0.011140203 0.0014390955
-0.038390264 -0.010586048 0.0014389139
-0.037829746 -0.010642176 0.0011711847
0.037491042 -0.010516614 0.0013218215
0.038607273 -0.010698539 0.0015598785
-0.039400198 -0.0093000177 0.0015408406
-0.038398415 -0.0094472719 0.0017541597
0.038676966 -0.009204112 0.0015375675
0.039380528 -0.0095967473 0.0014761011
-0.038679332 -0.0085306307 0.0011412047
0.037941732 -0.0084745986 0.0016438002
0.038537763 -0.0083746742 0.0014296804
0.039416377 -0.0086447531 0.0016384915
-0.039267123 -0.0076740771 0.0015722294
-0.038643003 -0.0074024322 0.0017276217
0.038847215 -0.0075738952 0.0012791166
0.039283384 -0.0076106731 0.0014416964
-0.040230401 -0.0062038237 0.00174517
-0.038950201 -0.0062064435 0.0016862344
0.038293697 -0.0065010116 0.0015246412
0.039327722 -0.0064683482 0.0016402325
-0.039633717 -0.0054313298 0.0012028264
0.038367316 -0.0058668479 0.0015700329
0.039586004 -0.0054209735 0.0013933801
-0.039345432 -0.0045389389 0.001450453
-0.038989503 -0.0040680198 0.0012922919
0.03878241 -0.0049835267 0.001152633
0.039889179 -0.0044221533 0.0016255628
0.040032931 -0.0049540782 0.0016047549
-0.039366804 -0.0032288644 0.0013338346
0.03953138 -0.0035263989 0.0010758669
0.040010836 -0.0038859304 0.0016688937
-0.040049136 -0.0020466102 0.0013593246
-0.039553199 -0.0026153086 0.0014140623
0.039651416 -0.002474614 0.0012145359
0.040432766 -0.0021996461 0.0013627261
-0.040343486 -0.0014869784 0.0014020102
-0.039255209 -0.0013634507 0.0015314787
0.039253563 -0.0017123315 0.001251156
0.040490616 -0.0013365321 0.0014082851
-0.041029487 -0.00072850473 0.0019366341
-0.040291477 -0.00050550245 0.0014152897
-0.039767291 -0.00032387723 0.001379832
0.039508119 -0.00040561933 0.0013720868
0.040542938 -0.00038710237 0.0014751486
-0.040379439 0.00047785556 0.0013922281
0.039710604 6.8805646e-05 0.0015768833
0.040107276 0.00094524585 0.0014040828
-0.040232256 0.0012687063 0.001467729
-0.039701823 0.0014446257 0.0012971347
-0.038721457 0.0019452134 0.0011336887
0.039552268 0.001494322 0.0012012513
-0.040102027 0.002820068 0.0014331839
-0.039647002 0.0026178882 0.0011526007
0.039733849 0.0027114491 0.0010882309
0.040304601 0.0024626236 0.0016043249
-0.040196571 0.0034577954 0.0013662403
-0.039196782 0.0039609522 0.0014241487
-0.038741395 0.0033913497 0.0017955496
0.038725406 0.003697414 0.0017298129
0.039474815 0.003279018 0.0014640092
0.040331922 0.0036016898 0.0016982497
-0.039578818 0.0045198104 0.0012760658
0.039330818 0.0043073762 0.0012719678
-0.039175984 0.0057200575 0.0014335439
-0.038981535 0.0052534491 0.0011679702
0.039397746 0.005797226 0.001256568
-0.039268356 0.0066140471 0.0011743139
-0.038767595 0.0069457665 0.0018500802
0.039726488 0.0065253787 0.0019405102
-0.03931541 0.0076764934 0.0013997077
-0.038514715 0.0073547415 0.0015148929
-0.037949242 0.0073985988 0.0013106698
0.038379308 0.0075070448 0.0014836404
0.039170176 0.0075981552 0.0013921901
-0.038682118 0.0085481675 0.0015631238
0.038656436 0.0085148644 0.0012457133
-0.039454058 0.0096366722 0.0018736538
-0.0387941 0.0099245347 0.0014921192
0.038813852 0.0091639794 0.001903031
0.039286185 0.0094632972 0.0014906164
-0.038688973 0.010554578 0.0011083146
0.037861571 0.010567056 0.0017886683
0.038525704 0.01038985 0.0012615208
0.039600376 0.010032494 0.0010866253
-0.03824909 0.01140619 0.0016116813
-0.037619524 0.011268416 0.001917341
0.037591301 0.011550186 0.0018549315
0.038536143 0.011409246 0.0015097053
-0.038164817 0.012624159 0.001098057
-0.036980629 0.01221701 0.0016328963
0.036950365 0.012789999 0.0014654594
-0.03838494 0.013311908 0.0010584984
-0.037553426 0.01366493 0.0014936789
0.036963344 0.013347805 0.0010281596
0.038082853 0.013246505 0.0017910874
-0.038031884 0.014454484 0.0013150405
-0.037021168 0.014694273 0.0018118527
-0.036100328 0.014756733 0.0013614716
0.035880867 0.014752457 0.001230069
0.036456585 0.014219344 0.0012244955
0.037191119 0.014571455 0.0019522667
-0.036320619 0.015667047 0.0014015755
-0.035948314 0.015868532 0.0019357752
0.035743203 0.015889699 0.0019213629
0.036312833 0.015604725 0.0010971704
-0.036630306 0.016505398 0.0017373478
0.036080055 0.016129155 0.0016637429
-0.03639926 0.017392477 0.0013068022
-0.035760824 0.017814388 0.0014452568
-0.034930222 0.017407469 0.0013606604
0.035387725 0.017634528 0.001379448
-0.035363801 0.018443417 0.0012983705
-0.034872472 0.018759646 0.0014820094
0.034746617 0.0185814 0.0013492845
0.035667002 0.018254258 0.0012973652
-0.034722731 0.019817015 0.001842533
0.034296699 0.019491518 0.0017058714
-0.034813266 0.020664122 0.0013232488
-0.033377737 0.020926012 0.0019933488
0.032996427 0.020674087 0.0019191159
0.033791568 0.020585485 0.0018998646
0.034289822 0.020614594 0.0016751715
-0.034074016 0.021009849 0.0013525616
-0.033722255 0.021285079 0.0012671069
0.033513803 0.021281298 0.0012248087
-0.033573125 0.022340074 0.001551447
-0.03214626 0.022635102 0.00114909
0.032545444 0.022107054 0.0018165617
0.033979423 0.022119638 0.0015979041
-0.032278996 0.023373531 0.0013603916
-0.031728201 0.023582496 0.0016134407
0.031634424 0.023632595 0.0016882288
0.032332908 0.023675704 0.0011523914
-0.032106791 0.024554878 0.0013253158
-0.031516135 0.024622403 0.0016377447
0.030862199 0.024542009 0.0014328072
0.031625852 0.024587933 0.0017530954
-0.031026233 0.025238786 0.0018545743
-0.030429523 0.025777815 0.0015411358
-0.029676413 0.025482951 0.0015547561
0.029524527 0.02555947 0.0015699696
0.030970646 0.025109515 0.0018748308
-0.02929043 0.026871804 0.0018865871
0.028502218 0.02649698 0.0017760145
0.02931653 0.026259955 0.001327853
-0.029317355 0.027413553 0.0012776686
-0.028758153 0.027569402 0.0017306291
0.028562786 0.027625754 0.0016006286
0.02945393 0.02711942 0.001396874
-0.02914146 0.028215881 0.0017266544
-0.028336156 0.02893395 0.0012699435
-0.027769372 0.028285716 0.0018629984
-0.026756682 0.028910737 0.0019410711
0.026408279 0.028745482 0.0018910975
0.027457321 0.02846407 0.0017536627
0.028615195 0.028365456 0.0016717061
-0.028020967 0.029031726 0.001718333
-0.026432337 0.029544011 0.0015658967
0.025915081 0.029905288 0.0012543709
0.026976462 0.029582515 0.0014421889
0.027592409 0.029130332 0.0010653882
-0.026113739 0.030517284 0.0014703508
-0.025772529 0.030701278 0.0013181142
-0.024625778 0.030647006 0.0010307401
0.02460593 0.030464882 0.0019056506
0.025372274 0.030721322 0.0011003241
0.026415452 0.03066048 0.0010906341
-0.026025381 0.031038832 0.0012560561
-0.024735969 0.031380598 0.0019095009
-0.023718834 0.031552821 0.0018031433
0.023561345 0.031667344 0.0017757495
0.024436217 0.031614937 0.0017112315
0.025656018 0.031397972 0.0010419348
-0.024362281 0.032244552 0.0016909265
-0.02365946 0.032528065 0.0014193028
-0.022653647 0.032728527 0.0017614225
-0.021952912 0.032955166 0.0012525236
0.020766668 0.032933176 0.0013920274
0.022762418 0.032670438 0.0018118024
0.023718826 0.032239851 0.0015892541
-0.022021078 0.03338993 0.0010841852
-0.02148192 0.033518292 0.0014637427
0.020677466 0.033902515 0.0015421256
0.021288514 0.033644758 0.0016556529
0.022157751 0.033312287 0.0014019894
-0.019387754 0.034487057 0.0015344722
0.018785976 0.034311485 0.0011420094
0.019325035 0.034618296 0.001614339
0.020549256 0.034720529 0.0011035856
-0.01931328 0.035259504 0.0015336997
-0.0185031 0.035477236 0.0016623151
-0.016762484 0.03569977 0.0019325481
0.016613029 0.035933234 0.0018588384
0.017990898 0.035260879 0.0011632703
0.018401293 0.035349574 0.0016154351
-0.017278181 0.036455858 0.0014885152
-0.016399302 0.036568694 0.0013445141
-0.015830316 0.036831338 0.0016141705
-0.013337163 0.036923055 0.0017171288
0.014501292 0.036872957 0.00189004
0.01563115 0.036694899 0.0015255157
0.016552934 0.036647793 0.0016380227
0.017429501 0.036290437 0.001502232
-0.014821004 0.037003439 0.0019808086
-0.013562921 0.037481241 0.0013145404
-0.012508005 0.037600577 0.0012565965
-0.010895176 0.037827723 0.0018532504
0.010604404 0.037687518 0.0018096045
0.012571925 0.037431821 0.0012484029
0.013508816 0.037449453 0.0017774858
-0.011129689 0.038313802 0.0015032906
-0.010607386 0.038489848 0.00106005
-0.0095326742 0.038740791 0.0017613785
-0.008858297 0.03872247 0.0019596405
0.0087927002 0.038824629 0.0018746671
0.0092861438 0.038812418 0.0016444684
0.010634122 0.03828866 0.0016601738
-0.0088633765 0.039202511 0.0013527176
-0.007922384 0.039214164 0.0012089112
-0.0064777751 0.039654121 0.0015762909
-0.0056308489 0.0396211 0.0013325522
-0.0041812495 0.039757811 0.001573742
-0.0032636516 0.039735224 0.0016162578
-0.0029218341 0.03939442 0.0019988245
-0.0012704652 0.039786663 0.0015086922
-0.00033427798 0.039582152 0.0013751941
0.00049980229 0.039645329 0.0013371591
0.0013312446 0.039891906 0.0019925507
0.0027720015 0.039583843 0.001728299
0.0036468159 0.039748747 0.0016143312
0.004106136 0.039883621 0.0015402855
0.0056164428 0.039721832 0.0014813369
0.0065064454 0.039549518 0.0015211162
0.0077154464 0.039330728 0.0015409864
0.0094695641 0.039041132 0.0012424057
-0.0045978166 0.04015559 0.0013268484
-0.0032306204 0.040040821 0.0013275016
-0.001752533 0.040058844 0.0015266449
-0.00013505321 0.040040821 0.0013275016
0.0014806762 0.040057965 0.001525871
0.0029604544 0.04004173 0.0013293307
0.0043277424 0.040155575 0.0013268046
0.0060786176 0.040043749 0.0012698001
-0.0070316177 -0.039181098 0.0022562994
-0.0062712017 -0.03931924 0.0024299659
-0.0053667147 -0.039256155 0.0028818622
-0.0044549117 -0.03978892 0.0025168112
-0.0033468828 -0.039314259 0.0023924445
-0.0027532787 -0.039502468 0.002647921
-0.00065754459 -0.039382458 0.0022895895
0.00038759259 -0.039381064 0.0022893562
0.002565539 -0.03943124 0.0025991248
0.0031287633 -0.039434634 0.00241144
0.0045393831 -0.039564885 0.0027073368
0.0055790171 -0.039161909 0.0027951936
0.0066909157 -0.039108891 0.0022029374
-0.010437673 -0.038394772 0.0020362223
-0.0093021225 -0.038583379 0.0025186888
-0.0085384054 -0.038547304 0.0025946179
-0.0062934882 -0.038853239 0.0021232478
0.0084251352 -0.038567562 0.0024679352
0.0093971221 -0.038535465 0.0026210565
0.010905285 -0.038175121 0.0021400051
-0.014853809 -0.037367091 0.0028163525
-0.01248801 -0.037497684 0.0026525096
-0.011227729 -0.037928358 0.0022184057
-0.010087798 -0.037860043 0.0028981264
-0.0097400881 -0.037953056 0.0023103405
0.0096253529 -0.037914425 0.0024131164
0.010078251 -0.037810829 0.0027227909
0.011902105 -0.037706513 0.0026567806
0.01232553 -0.037281442 0.0024874592
0.014564438 -0.03722484 0.0027725941
-0.01656851 -0.036232073 0.0023222037
-0.015702102 -0.036495559 0.0024621217
-0.013903009 -0.036516264 0.0028725071
-0.012792388 -0.036927041 0.0027744384
0.013465959 -0.036691457 0.0022985029
0.015582243 -0.036374263 0.0025719362
0.01662139 -0.036237311 0.0025252078
-0.018631343 -0.035433494 0.0026323078
-0.017036114 -0.035620213 0.0026743426
-0.016961034 -0.035839535 0.0027014692
0.016519589 -0.035833888 0.0025107572
0.017235847 -0.035668641 0.0024019582
0.018383907 -0.035321545 0.0026403454
0.019466706 -0.035248622 0.0026061866
-0.019464657 -0.034719344 0.0027813441
0.018695084 -0.034508891 0.0025333297
0.019679375 -0.034005068 0.002860073
-0.022368819 -0.033130243 0.0022912156
-0.021572348 -0.033404123 0.0024542282
-0.020681508 -0.033792194 0.0024615249
-0.019861411 -0.033984911 0.0025777596
0.018940669 -0.033991553 0.0025345217
0.01944614 -0.033697065 0.0022288344
0.020621113 -0.033898845 0.0023630117
0.021248829 -0.033547364 0.0024279973
0.022413168 -0.03325057 0.0020654574
-0.023459204 -0.032347128 0.0026126825
-0.022547729 -0.032565266 0.0025085823
-0.021628128 -0.032715712 0.0022923835
0.021613797 -0.032758754 0.0024253675
0.022364914 -0.032611191 0.002322848
0.023210656 -0.032578044 0.0025383544
-0.024423629 -0.031413943 0.0024205926
0.022841733 -0.031685185 0.0024531921
0.023701722 -0.031090945 0.0023446111
0.024454154 -0.031492829 0.0021616346
-0.027171694 -0.030280961 0.002205929
-0.026342575 -0.030233756 0.0026665721
-0.025482917 -0.030822726 0.0025730743
0.025548464 -0.030416563 0.0025177754
0.026841221 -0.030153558 0.0021672759
-0.027318601 -0.029692786 0.0025385923
-0.026715266 -0.029460937 0.0023454519
-0.025663758 -0.029720224 0.0028184534
0.026746452 -0.029438013 0.0024142368
0.027885312 -0.029354367 0.0024945198
-0.028755862 -0.028533347 0.0024434351
-0.02761439 -0.028519576 0.0023660758
-0.026600828 -0.028817922 0.0029849317
0.026727738 -0.02856108 0.0025720189
0.02772807 -0.028746026 0.0027861819
0.028009947 -0.028743444 0.0023479834
-0.029152349 -0.027692966 0.002041413
-0.028394233 -0.027562823 0.0024098188
-0.027824204 -0.027808879 0.002157812
0.028495155 -0.027750526 0.0026211042
-0.029356578 -0.026648022 0.002452781
0.028613906 -0.026790787 0.0023973333
0.029343046 -0.026485192 0.0025514956
-0.030137531 -0.025367405 0.0024421345
-0.029678501 -0.025611224 0.0020464363
-0.028934045 -0.025811527 0.0020693513
0.02961714 -0.025594361 0.0026785203
0.030509111 -0.02553183 0.0025297322
-0.032518174 -0.02419937 0.0024250266
-0.031498574 -0.024467768 0.0024789637
-0.030946752 -0.024487481 0.002265523
0.031008884 -0.024334071 0.0029202849
-0.032462876 -0.023638008 0.0029212302
-0.031655632 -0.023407951 0.0024393601
-0.030907497 -0.023870198 0.0021974016
0.031048939 -0.023623351 0.0024767995
0.03232966 -0.023692137 0.0026671104
-0.03381063 -0.022299934 0.0025667599
-0.032745156 -0.022384789 0.0025674449
0.031374097 -0.022889791 0.0028229225
0.032246199 -0.022417791 0.0023592636
0.033546805 -0.022415563 0.0022865022
-0.034398586 -0.021438956 0.0024589533
-0.033280365 -0.021492129 0.0024778913
0.032694977 -0.021586817 0.0022891667
0.033429656 -0.021539643 0.0024090644
0.034443058 -0.021585207 0.0024362751
-0.0344822 -0.020742076 0.0023343321
0.034213047 -0.020047974 0.0027795758
-0.035609756 -0.01911211 0.0025993092
-0.034839541 -0.019813014 0.0022231811
0.035181187 -0.019203197 0.0025174459
-0.035353955 -0.018429941 0.0023199662
-0.034703802 -0.018633882 0.00274858
0.034865692 -0.01823096 0.0024559582
0.035391722 -0.018604646 0.0024222962
-0.035564613 -0.017384117 0.0027030401
0.035455037 -0.017244222 0.0024923028
-0.036563855 -0.016314616 0.0026637493
0.036414668 -0.016326537 0.002572743
-0.036442291 -0.01522139 0.00240287
-0.035699114 -0.015916783 0.0026290305
0.036183145 -0.015276053 0.0025863836
-0.036574163 -0.014430987 0.0026256826
-0.03582003 -0.014736386 0.0028179181
0.036717832 -0.014501582 0.0025443144
-0.038172051 -0.013429958 0.0028448543
-0.037682377 -0.013656905 0.0025149635
-0.036991883 -0.013734056 0.0027353377
0.036622569 -0.01368405 0.0025698715
0.037489828 -0.013565357 0.0026491715
0.038356002 -0.013302121 0.0028638141
-0.037330449 -0.012254429 0.0026181082
0.036811866 -0.012289532 0.002563111
0.037408762 -0.012403117 0.0025632388
0.038663868 -0.012063055 0.0023082425
-0.038659144 -0.01153397 0.0025180106
-0.03768196 -0.011612218 0.0021210792
0.037655681 -0.011855307 0.0023532698
0.038359035 -0.011275148 0.0025557603
0.039140198 -0.011112036 0.0023599705
-0.03860645 -0.010515515 0.0021512955
0.039041478 -0.010598564 0.002714898
-0.039265722 -0.0090979934 0.0024019568
0.03888005 -0.0096822865 0.0026536386
-0.039327741 -0.0082932692 0.0025891082
-0.038235445 -0.0085239038 0.0026696019
0.038552716 -0.0081789326 0.0025747332
0.039113447 -0.0080691678 0.0028749194
-0.038559683 -0.007276414 0.0025632605
-0.03781369 -0.0079677925 0.0021517081
0.038135283 -0.0073886421 0.0024971496
0.039475784 -0.0073013413 0.0025361949
-0.038144819 -0.0068792906 0.0021242425
0.038240686 -0.0064233895 0.0020292518
-0.038655128 -0.0055196867 0.0024860986
0.038185984 -0.0056705978 0.00296045
0.03933027 -0.0052299062 0.0025905431
-0.03973553 -0.0044076764 0.0022938966
-0.038720932 -0.004286414 0.0024195954
0.038363889 -0.0045390744 0.0023297463
0.039879996 -0.0042157471 0.0025749446
-0.039184444 -0.0034353496 0.0027006231
0.038814791 -0.0036387471 0.0025185654
0.03945367 -0.0037385193 0.0023062525
-0.040108036 -0.0024592055 0.0024578441
-0.039598681 -0.0025048899 0.0028114708
0.038870487 -0.0025319681 0.0022435375
-0.040077511 -0.0016120733 0.0020264005
-0.039587561 -0.0011140166 0.00257654
0.039460003 -0.0013617347 0.0027542659
0.040332682 -0.0010674791 0.0022716823
-0.040110163 -0.00041561667 0.0027340907
-0.039339229 -0.00044423132 0.0024468154
0.039593004 -0.00045103999 0.0024493863
-0.040056478 0.00077389926 0.0026123514
-0.039520528 0.00041186064 0.0029872998
0.039753508 0.00014172494 0.0028618139
-0.039502356 0.001390624 0.0024660118
0.039204039 0.0012092097 0.0027171508
-0.040077843 0.0021414442 0.0022464651
-0.039332092 0.0027443725 0.0024863335
-0.03888917 0.0025092838 0.0028734435
0.039440401 0.0026349206 0.0027604569
0.040273346 0.0024869666 0.002491381
-0.039257105 0.0032059501 0.0025207289
0.038776293 0.0038963528 0.0029656969
0.039113078 0.0031909784 0.0024300418
-0.039351277 0.0045798523 0.0027328467
0.03859479 0.0045503206 0.0026328866
0.040028859 0.0046709152 0.0026007593
-0.039803639 0.0050105099 0.0025940724
0.039543286 0.0055188239 0.0024101327
-0.039544076 0.0068558604 0.0021397769
-0.038555901 0.0063772332 0.0022498604
0.03861054 0.0068033538 0.0023711047
0.03943501 0.0063396436 0.0021364149
-0.038803957 0.0074469503 0.0026529776
0.038311031 0.0072909249 0.0024643503
0.039288659 0.007534436 0.002512947
-0.039500117 0.0088373609 0.0023202584
-0.038647868 0.0084497482 0.00242751
0.037898865 0.008516226 0.0026178369
0.038365137 0.0081897266 0.00225211
-0.03938549 0.0098564997 0.0028509456
-0.038217001 0.009763388 0.0023244254
0.038662914 0.009658576 0.0025743535
0.039240722 0.0095099667 0.0026415726
-0.038552444 0.010726552 0.0024491565
0.037856959 0.010320872 0.0026991619
0.03803242 0.010727202 0.002873071
0.039138455 0.01064783 0.0022823382
-0.038325269 0.011538764 0.0023487546
-0.037552457 0.011933076 0.0029659872
0.037392847 0.011902278 0.0029486089
0.038365316 0.011606446 0.0020518005
-0.038595039 0.012307164 0.002933132
-0.037538886 0.012466166 0.0025224572
0.037486929 0.012579098 0.0024093625
-0.037414305 0.013465071 0.0023551385
0.036963068 0.013215516 0.0023799369
0.037198767 0.01313695 0.0028875631
-0.037339661 0.01472687 0.0024509598
-0.036268458 0.014575299 0.0024307326
0.035924006 0.014854296 0.0026882011
0.036652192 0.014638095 0.0025150755
0.037155464 0.014459077 0.0027000837
-0.037233762 0.015279975 0.002284091
-0.035449468 0.015582093 0.0023533576
0.036107209 0.015573347 0.0025809521
-0.036681868 0.016325049 0.0024077038
-0.035697706 0.016557977 0.0026453678
0.035578374 0.016606051 0.0025427465
0.036203265 0.016611202 0.0024047277
-0.036808744 0.017150909 0.0024350625
-0.035605431 0.01754814 0.0025894982
-0.034860805 0.017499927 0.0025960444
0.03466801 0.017526252 0.0024813253
0.035600659 0.017474441 0.0024382756
0.03639007 0.017200708 0.0025053767
-0.034762263 0.018462051 0.0029833196
0.034756489 0.018832531 0.0024274923
0.035489343 0.018529641 0.0023800051
-0.034692302 0.019688761 0.0029843953
0.033906043 0.019461276 0.0028988286
0.034148712 0.019512262 0.0027166624
-0.03514646 0.020812992 0.0027923742
-0.034495693 0.020746388 0.0020109499
-0.033634469 0.020311646 0.0023553658
0.033342063 0.020628596 0.00252249
0.034351382 0.020616591 0.0027223777
-0.034394134 0.021062803 0.0028540166
-0.033684179 0.021718211 0.0029176059
0.03346955 0.02165376 0.002307591
0.034438491 0.021221494 0.0022023499
-0.033235464 0.022261254 0.0029083462
-0.032435756 0.022677474 0.0021195472
0.031977817 0.022909418 0.00297635
0.032288395 0.022947371 0.0029924866
-0.032347355 0.023898963 0.0026102839
-0.030993773 0.023579372 0.0022286992
0.031882238 0.023734516 0.0026881201
-0.032329582 0.024058379 0.0029480616
-0.031890437 0.024199851 0.0026894184
0.030721741 0.024868526 0.002938203
0.03180366 0.024382221 0.0024463804
0.032089874 0.024184326 0.0025333315
-0.031372946 0.025008464 0.0023808735
-0.030844811 0.025020119 0.0020988581
-0.029835485 0.025778836 0.0022839727
0.029828558 0.025934551 0.0021718382
-0.030110702 0.026798002 0.0024480904
-0.02964595 0.026451724 0.0024355641
-0.028672403 0.026700968 0.0029573312
0.028324036 0.026532441 0.0029072729
0.029610893 0.02659527 0.0024839644
-0.029373009 0.027238781 0.0022166132
-0.028757038 0.027364155 0.0025323688
-0.027541287 0.027794205 0.0025861743
0.027455952 0.027945086 0.0027787224
0.028366197 0.027559191 0.0023892587
0.029092107 0.027670737 0.0024423962
-0.029087657 0.028047405 0.0026224321
-0.027607659 0.028542794 0.0027536652
0.026737576 0.028834384 0.0022807927
0.027779201 0.028448602 0.0025071595
0.028259307 0.028459037 0.0020827842
-0.027325371 0.029046495 0.0023489962
0.026330996 0.029860627 0.0024462107
0.02732279 0.029049134 0.0024120877
0.028230246 0.029115252 0.0020150645
-0.026647475 0.030482396 0.0026863655
-0.025830492 0.030527182 0.0026088739
-0.024908299 0.030775541 0.0020002055
0.025499629 0.030489942 0.0021919012
0.026421571 0.0305022 0.002579587
-0.025443178 0.031190611 0.0025406415
-0.024533242 0.031605631 0.0024187453
-0.023421858 0.031578608 0.0026937036
0.023171887 0.031807907 0.0026191324
0.024505496 0.031423081 0.0025434282
-0.024547867 0.032009769 0.0028464478
-0.02260885 0.032510709 0.0025017909
-0.021368813 0.032965481 0.0024108612
0.021461865 0.032798205 0.0022657292
0.022593087 0.032547746 0.0025365842
-0.022504147 0.033276223 0.0024226306
-0.021499261 0.033324622 0.0022400585
-0.020714039 0.033494078 0.0022720713
-0.019617302 0.033761367 0.0029202255
0.020603502 0.033465743 0.0024139173
0.021260528 0.033667881 0.0024282904
0.022190545 0.03323929 0.0020481939
-0.020577952 0.034407992 0.0027078148
-0.019957174 0.034292355 0.0029822711
-0.018684328 0.034788214 0.0029247175
0.018381422 0.034907594 0.0025648621
0.019564906 0.034419242 0.0026930161
0.020808663 0.034020219 0.0027788738
0.021158176 0.03419048 0.0024701227
-0.018599376 0.035296157 0.0026191601
-0.01741964 0.035860319 0.0020840773
-0.016926074 0.035840746 0.0022199666
0.018382413 0.035709132 0.0022505857
-0.018057354 0.036373883 0.0021131989
-0.017277095 0.036095086 0.002262081
-0.016740911 0.03670777 0.0023592068
-0.015452536 0.036734559 0.0025232928
-0.014826583 0.036672167 0.0027546119
0.014715218 0.036667563 0.0024566699
0.015433799 0.036663502 0.0027490356
0.016496016 0.036522027 0.002513773
-0.015613508 0.037161205 0.0026573569
-0.014435482 0.037713423 0.0022479051
-0.013125002 0.037485436 0.0027733601
-0.012356865 0.03781369 0.0027127997
-0.011509303 0.037920736 0.0021090643
-0.010456362 0.037934959 0.002025296
0.011768472 0.03782963 0.002463388
0.012818703 0.037805539 0.0026799026
0.013422516 0.037737388 0.0023379072
0.014561304 0.037448239 0.0020520636
0.015624242 0.037051536 0.0022995733
-0.013094927 0.038009297 0.0029447926
-0.012449436 0.038187835 0.0024953617
-0.011641026 0.038344454 0.0024895216
-0.010419006 0.038835004 0.0021474678
-0.0094514899 0.038597062 0.0025365262
-0.008779793 0.038742825 0.0027970551
0.0088177277 0.03867178 0.0025815784
0.0092761004 0.03854353 0.0024252061
0.011662992 0.038231637 0.0023979947
0.012468115 0.038045026 0.0022149063
-0.0090132831 0.039121825 0.0028480694
-0.0080195898 0.039107494 0.0021190215
-0.0077005415 0.039462015 0.0027888464
-0.0066321571 0.039689913 0.0023642555
-0.0056962073 0.039629973 0.0023992723
-0.004447876 0.039696831 0.002232868
-0.0035753353 0.039799809 0.0022304705
-0.0024785949 0.039632704 0.0025334959
-0.00051561533 0.039890055 0.0027313493
0.00024545845 0.039890055 0.0027313605
0.0022086964 0.039631542 0.002533129
0.0033056308 0.039799437 0.0022301117
0.0041771932 0.039696023 0.0022318338
0.0054572411 0.039658509 0.0023901686
0.0064507294 0.039672591 0.0024209917
0.0074160811 0.039476592 0.0026217285
0.0085908324 0.039254747 0.0028147488
0.0092030875 0.039110735 0.0023546908
-0.005467928 0.040075283 0.0029456764
-0.0011223862 0.040179741 0.0025062617
0.000851091 0.040179227 0.0025044186
0.0051959604 0.04007617 0.0029450399
0.006037306 0.040101252 0.0029379399
-0.0060221446 -0.040130019 0.0038522896
-0.0030785988 -0.040130019 0.0038522896
-0.00013505321 -0.040130019 0.0038522896
0.0028084924 -0.040130019 0.0038522896
-0.0088068936 -0.039235897 0.0037714913
-0.0077938018 -0.039170712 0.0034975037
-0.0065155895 -0.039495084 0.0038357361
-0.0055594612 -0.039281454 0.0035626921
-0.004360287 -0.039550006 0.0036133495
-0.0034236379 -0.039465524 0.0036479407
-0.0025805305 -0.03935501 0.0034972478
-0.0017164219 -0.039627612 0.0035014218
-0.00046445499 -0.039450884 0.0037592782
0.00035918457 -0.039503694 0.0038851453
0.0015105904 -0.039542597 0.0035299882
0.0026609323 -0.039382871 0.0034724469
0.0034677563 -0.039543573 0.0037870118
0.0046718121 -0.039427239 0.0036479121
0.0055053965 -0.039457452 0.0035132612
0.006517401 -0.039217032 0.0035563074
0.0075913593 -0.039293323 0.0034576715
0.0085347816 -0.039142225 0.003757437
-0.011882705 -0.038278971 0.0038959987
-0.010513972 -0.038091034 0.0039080251
-0.0093898252 -0.038345274 0.0035783367
-0.0087430133 -0.038503844 0.0035700232
-0.0079063475 -0.038731586 0.003547987
-0.0067206989 -0.038824845 0.0036610458
-0.0050353161 -0.038952611 0.0034141275
0.0047671781 -0.038952284 0.0034151892
0.0057278657 -0.038897395 0.0031731687
0.0066863466 -0.0387225 0.003527483
0.007685517 -0.038649753 0.0035230238
0.0085453149 -0.038516644 0.0035753059
0.0097525418 -0.038223252 0.0038327239
0.010227328 -0.038135588 0.0039076675
0.011608054 -0.038213056 0.0038905542
-0.014452847 -0.037280418 0.0037755731
-0.013628887 -0.03704156 0.0039736023
-0.012513717 -0.037659001 0.0035317638
-0.011580651 -0.037594456 0.0033190541
-0.010937073 -0.037604954 0.0038511311
-0.0098747741 -0.037756789 0.0031387364
0.0091463141 -0.037997525 0.003143074
0.010898533 -0.037725084 0.003640688
0.011426149 -0.037656225 0.0034193716
0.012365354 -0.037618838 0.0036468215
0.013831476 -0.037074309 0.0039248336
0.014381683 -0.037433166 0.0036604905
0.01560136 -0.037105996 0.003288005
-0.017712021 -0.036507197 0.0038679475
-0.016422486 -0.036114622 0.0031986076
-0.015628528 -0.036578726 0.0035669017
-0.014430466 -0.036709562 0.0037468486
-0.013597386 -0.036935955 0.0039827991
0.013632456 -0.036960423 0.0039346088
0.014845724 -0.036632206 0.0033947683
0.015546816 -0.036802605 0.0037523673
0.01682432 -0.036266997 0.0032775057
0.017178528 -0.03672386 0.0038517583
-0.020054303 -0.035114881 0.0038581658
-0.018556729 -0.035702568 0.0035672253
-0.017554646 -0.035466753 0.0035288031
-0.016724309 -0.035478897 0.0033159386
0.015964966 -0.035919379 0.0035890697
0.016950775 -0.03567905 0.0037662303
0.017826252 -0.035496503 0.0037263234
0.018332491 -0.035546999 0.0034718858
0.019804159 -0.035186652 0.0038575996
-0.021074617 -0.034234285 0.0038764901
-0.020303059 -0.034464952 0.0033786385
-0.019375626 -0.034470357 0.003223116
-0.018545467 -0.034776248 0.0035541444
0.01823475 -0.03459695 0.0032625566
0.019511197 -0.034311596 0.0035071052
0.020497072 -0.034445625 0.0035771853
-0.022656333 -0.033443257 0.0038651098
-0.021213992 -0.033307057 0.0036671297
-0.020662239 -0.033457637 0.0036331681
-0.019716891 -0.033875912 0.0039189388
0.019881345 -0.033734217 0.0035481965
0.020562237 -0.033859581 0.003773506
0.021144539 -0.033133022 0.0034248866
0.022406181 -0.033517376 0.0038645137
-0.024199802 -0.032336831 0.0039168508
-0.023691662 -0.032481264 0.0038126553
-0.022574373 -0.032209288 0.0037182234
0.020670308 -0.03299924 0.0037134942
0.021625843 -0.032593518 0.00370973
0.022448162 -0.03222077 0.0037717123
0.023413487 -0.032457348 0.003796163
-0.025270594 -0.031763654 0.0038721133
-0.024380878 -0.031128816 0.0039462424
-0.02361853 -0.03171856 0.0035011321
-0.022482494 -0.031756658 0.0038032448
0.022797134 -0.031995777 0.0037594922
0.023629496 -0.03157571 0.0034568715
0.024340486 -0.031383932 0.0036818618
0.02552448 -0.031314194 0.0037894242
-0.026286075 -0.030473918 0.0038608182
-0.025757886 -0.030546155 0.0035775709
-0.024445385 -0.030883769 0.0035608816
0.023992717 -0.030987693 0.0039828289
0.024572894 -0.030641109 0.0031627517
0.025560031 -0.030453788 0.0034500491
0.026196143 -0.030293934 0.0038510952
-0.027624881 -0.029593447 0.0039366707
-0.02614844 -0.02992134 0.0030093919
-0.025830571 -0.029856227 0.0034670143
0.026342364 -0.029207466 0.0036475649
0.027389476 -0.029544747 0.0039117532
0.028058564 -0.029041652 0.0038570038
-0.029098697 -0.028113293 0.0032299559
-0.02844872 -0.028511673 0.0038036909
-0.027651794 -0.028435638 0.0034169946
0.02773164 -0.028288251 0.0034946178
0.028503459 -0.028232455 0.0037106313
-0.030225275 -0.027103808 0.0038970578
-0.029071536 -0.027669407 0.0038452675
-0.028253725 -0.027778048 0.0036207228
-0.027915219 -0.027780201 0.0038568005
0.027669489 -0.027722359 0.0035090195
0.028609267 -0.027754879 0.0035876688
0.029745821 -0.027369702 0.0039306474
-0.030529093 -0.026318634 0.0039172792
-0.029453006 -0.026421089 0.0037740234
-0.028866807 -0.026132651 0.0039790366
0.028878272 -0.026368042 0.0036434077
0.029199246 -0.02691514 0.0035939305
0.030262604 -0.026350901 0.0035808329
-0.030538173 -0.025567006 0.0034635304
-0.028953118 -0.025816986 0.0035755252
0.029690031 -0.025047636 0.0035801157
0.030335104 -0.025396571 0.0037562037
-0.032506332 -0.024273336 0.0038932581
-0.031507332 -0.024508547 0.0033963115
-0.030849518 -0.024602195 0.0037086655
0.029949408 -0.024845473 0.0030322652
0.030560574 -0.024546871 0.0038405694
0.031118393 -0.024590939 0.0035118416
0.032276332 -0.024380725 0.0038922746
-0.032526422 -0.023274813 0.0036158198
-0.031758919 -0.02353972 0.0032297689
0.031724438 -0.023352223 0.0035999981
0.032515481 -0.023560718 0.0036369963
-0.033618376 -0.022483144 0.0033982564
-0.032356482 -0.022336632 0.0034232333
0.031586211 -0.022961631 0.0039218916
0.032947313 -0.022209389 0.0031934334
0.033067681 -0.022392921 0.0032240918
-0.035030171 -0.021331305 0.0039310921
-0.034443803 -0.021837097 0.003881084
-0.033579022 -0.021432023 0.0036426
0.033418085 -0.021615004 0.0035675252
0.034371015 -0.021768585 0.0038060136
-0.034586806 -0.020578038 0.0034491166
0.034480147 -0.02057167 0.0034122535
-0.035587315 -0.019763062 0.0031933361
-0.034546819 -0.019395491 0.0035048148
0.034419462 -0.01943497 0.0036005466
0.035207655 -0.019509584 0.0031199516
-0.036046922 -0.018562973 0.0038972369
-0.035409667 -0.01831094 0.0037199981
-0.034789592 -0.018401256 0.0038742977
0.034655277 -0.018385792 0.0037694375
0.035542622 -0.018623449 0.0036652207
0.035496101 -0.017489614 0.0037248428
-0.037112154 -0.016617548 0.0039444533
-0.036203723 -0.016421948 0.0037370571
-0.035263658 -0.016303679 0.0038890443
0.035483912 -0.016310101 0.0034331977
0.036808237 -0.016585406 0.0039065089
-0.037593473 -0.015221294 0.0039234166
-0.036376175 -0.015342604 0.0037587397
0.035852902 -0.015307723 0.0036528213
0.036457237 -0.015362989 0.0036665071
0.037413191 -0.015282976 0.0039131809
-0.037344042 -0.014547274 0.0032780282
-0.036371786 -0.014746845 0.0036080915
0.036123965 -0.014305744 0.0039856602
0.037325099 -0.014532979 0.0034041679
-0.038281348 -0.013274425 0.0031443986
-0.037409209 -0.013571739 0.0035247034
-0.036694296 -0.013159893 0.0034776367
0.036396869 -0.01356132 0.0037155342
0.037528168 -0.013491385 0.0036372999
-0.03925591 -0.012123177 0.0039937664
-0.038175959 -0.012631369 0.0037575588
-0.037789509 -0.012227097 0.0034771296
0.03760257 -0.012391098 0.0034628331
0.039027415 -0.012322477 0.0039921273
-0.039193559 -0.011691055 0.0039319564
-0.038591102 -0.011410068 0.0033664915
-0.03784572 -0.01152233 0.0039533032
0.037593011 -0.011562631 0.0037252922
0.038826063 -0.01148012 0.0038312627
-0.039395466 -0.010350597 0.003511661
-0.038609531 -0.010283703 0.0036759209
0.037981361 -0.010129813 0.0034858887
0.038858 -0.010390012 0.0035198834
0.039150238 -0.010079982 0.0033681788
-0.039147008 -0.0099779852 0.0038643647
-0.038631707 -0.0092059216 0.0037570538
0.037949473 -0.0094100079 0.0035159464
0.038429931 -0.0091543272 0.0036177037
0.039667543 -0.0091522029 0.0036428934
-0.039523751 -0.0082287733 0.0035634204
-0.038409181 -0.0084976312 0.0038360092
0.038407352 -0.008406708 0.003785481
0.039088447 -0.0081364363 0.0031624627
-0.039107196 -0.0077845533 0.0035990886
-0.038935546 -0.0071716486 0.0031010453
0.038680829 -0.0073079672 0.0036005899
0.039077792 -0.0078549534 0.0035538711
-0.040035915 -0.006471985 0.003709937
-0.039395861 -0.0064757545 0.0037370094
-0.038866699 -0.0064957957 0.0035826864
0.038758755 -0.0063403351 0.0037705158
0.039608318 -0.0066141551 0.0037378259
-0.039889634 -0.0052166376 0.0032834434
-0.038850054 -0.0053262729 0.003629023
0.038713768 -0.0051184939 0.0038020136
-0.039533034 -0.0047774054 0.0033270074
0.039526656 -0.0049140491 0.0033959323
-0.040081095 -0.0034896415 0.0038855243
-0.039580718 -0.0033985528 0.0035786789
0.039447416 -0.0034444132 0.0037593772
0.040458344 -0.0037303586 0.003494788
-0.040409673 -0.0024386321 0.003612319
-0.038840897 -0.0021771919 0.0031861858
0.038793724 -0.0026314296 0.0037961476
0.039723001 -0.002416997 0.0037367074
0.040294401 -0.0021923557 0.0035361759
-0.040619027 -0.0016285866 0.0037405705
-0.039497789 -0.001628543 0.0035645328
0.039473172 -0.0016162976 0.0036359571
0.040339407 -0.0016897786 0.0037132138
-0.040307254 -0.00022939166 0.0038807974
-0.039631173 -0.00031750038 0.0037194774
0.039761219 -0.00024708998 0.003844636
0.040406276 -0.00029490143 0.0038949419
-0.040572405 0.00046661007 0.0038553346
-0.039487489 0.000471381 0.0031942544
0.038977914 0.00095403753 0.0031041251
0.039140448 0.00040839054 0.0031644434
0.040318806 0.00037783571 0.0037806341
-0.040330704 0.0015496205 0.0033741936
-0.039532781 0.0013924203 0.0034525674
0.039766103 0.0012825313 0.0034145997
0.040166657 0.0014608776 0.0035769383
-0.04063189 0.0024726931 0.0034950487
-0.039480429 0.0026883888 0.0038016881
0.039398883 0.002630017 0.0038402779
0.040327374 0.0025155451 0.0034866063
-0.040180363 0.0036839191 0.0039154757
-0.039499983 0.0035034688 0.0031167287
-0.038606379 0.0034031309 0.0039893854
0.038439691 0.003606325 0.0039875079
0.039390475 0.0033642463 0.0030733123
0.040265113 0.003726569 0.0039211321
-0.040068168 0.0048496276 0.0030313917
-0.039463691 0.0043238876 0.0035845833
-0.038785346 0.004222298 0.0031566233
0.038485453 0.004332311 0.0034874617
0.039368138 0.0042174156 0.0034405319
-0.039590888 0.0055264607 0.0034678695
-0.038872387 0.0056082718 0.003386646
0.038588315 0.0057525635 0.0038823355
0.039280672 0.005727164 0.0035308041
-0.040009074 0.0067888796 0.0032995548
-0.038492642 0.0062045185 0.0035255095
0.038938917 0.0065041338 0.0033758322
0.039338753 0.0062545054 0.0033124958
-0.039377395 0.0075028823 0.0038573423
-0.038755614 0.0071874727 0.0036651934
0.038730178 0.0072590997 0.0036191745
0.039372697 0.0076448238 0.0037794677
-0.039303411 0.0085685477 0.0035577307
-0.038468018 0.0085649816 0.0036030347
-0.037863597 0.0086371657 0.0039557684
0.03782478 0.0086262291 0.0034396674
0.038443994 0.008676948 0.0037429614
0.039386541 0.0083133373 0.0032821142
-0.038509216 0.0091475444 0.0039871018
0.038609069 0.0094585204 0.0037333563
-0.039360683 0.010276776 0.003514708
-0.038331673 0.010137558 0.0037239613
-0.037810467 0.010071122 0.0033133337
0.038502153 0.010560701 0.0036205871
0.039091066 0.010444447 0.0037654231
-0.038684756 0.011508653 0.0037253818
0.037524827 0.011665262 0.0033877606
0.038388498 0.01168999 0.003654212
-0.038269397 0.012543161 0.0035424053
-0.037575036 0.012681685 0.00353034
-0.036726385 0.012983561 0.0039300788
0.037735656 0.012468744 0.0036435078
0.038405448 0.012186842 0.0035177795
-0.037806399 0.013473805 0.0036106154
-0.036634617 0.01314716 0.0039542578
0.036555324 0.013363627 0.0038361794
0.037290003 0.013362826 0.0036522483
-0.037368197 0.014397194 0.003660351
-0.036577638 0.014650252 0.003468842
0.036444355 0.014419312 0.0035384819
0.037313975 0.014484386 0.0037256989
-0.036230482 0.015627321 0.003412073
0.036352042 0.015888846 0.0037558491
0.037071012 0.015943184 0.0032771919
-0.036747426 0.016423646 0.0037481028
-0.035158746 0.016426051 0.0039127339
0.034961376 0.016560582 0.003911363
0.03532565 0.01693482 0.0037525301
0.036088724 0.016935745 0.0032860925
-0.0360374 0.01728438 0.0031752491
-0.035494395 0.017440744 0.0037987058
-0.034741301 0.017633995 0.003512868
0.03409604 0.017901398 0.0039559472
0.035490107 0.017705193 0.0038152554
-0.035284944 0.018368728 0.003608339
-0.033934433 0.018907923 0.0030663242
0.034624372 0.018602623 0.0036202401
0.03570433 0.018488795 0.003468079
-0.035454653 0.019767452 0.0030053272
-0.034556732 0.019441085 0.0035102824
-0.033609029 0.019828958 0.003895419
0.033412904 0.019963128 0.0038941076
0.034707814 0.019510183 0.0032672202
-0.034330767 0.020749005 0.0034794323
-0.033847995 0.02041766 0.003920007
0.033786342 0.020545613 0.003851125
0.034345139 0.020749204 0.0038970422
-0.034287713 0.021737326 0.00341267
-0.033681408 0.021581868 0.003211427
-0.032189649 0.021932494 0.0039293338
0.032864541 0.021646118 0.0030513047
0.033763681 0.021579534 0.0034019502
0.034017526 0.021984588 0.0035739373
-0.033869326 0.022161122 0.0034293414
-0.032317072 0.022528613 0.0034827138
-0.031831492 0.022756424 0.0038825443
0.031780668 0.022450818 0.0039049406
0.032457963 0.022561362 0.0035572525
0.033335283 0.02218402 0.0037109233
-0.032341052 0.023923732 0.0037956517
-0.031925041 0.023786513 0.0034579756
-0.030871648 0.023928463 0.003982414
0.031640068 0.023990102 0.0030275644
0.032201156 0.023875017 0.0037925122
-0.031580217 0.024063839 0.0032304272
-0.030518331 0.024550768 0.0035983289
-0.029767847 0.024731774 0.0039129723
0.029526871 0.0248514 0.0039120186
0.030251289 0.02468208 0.0038966283
0.031391669 0.024504237 0.0033790595
0.032006547 0.024110848 0.0034911307
-0.030797636 0.02517665 0.0035845216
-0.029769521 0.025135871 0.0038747659
0.029553384 0.025229964 0.0038738719
0.030499173 0.025150299 0.0036212236
0.031133853 0.025012018 0.0030736639
-0.02939791 0.026377834 0.0036637476
-0.028915465 0.026989255 0.0037157098
0.028495546 0.026810845 0.0035914679
0.029537784 0.026625145 0.0032630097
0.030116931 0.026468666 0.0037364345
-0.029599605 0.027040426 0.0037646103
-0.028525896 0.027562445 0.0035672912
-0.027583253 0.027696604 0.0039086868
0.027361536 0.027723005 0.0038932164
0.028432593 0.02745354 0.0035886976
0.029353023 0.027038857 0.0037484039
-0.02814745 0.028312609 0.0036218241
-0.027888976 0.028027274 0.0030518752
0.027270731 0.028664444 0.0039199661
-0.026626512 0.029558072 0.0038671959
-0.025658444 0.029825613 0.0038805474
0.025463637 0.029951425 0.0038584045
0.026447091 0.029608741 0.0038663615
0.027302478 0.029673785 0.0038671095
-0.026501149 0.030367196 0.0035051671
-0.025875878 0.030229714 0.003663745
-0.024626859 0.030439671 0.0039038705
0.024728723 0.030229049 0.0038809646
0.025776858 0.030360367 0.0037163708
0.026297107 0.030412599 0.0038535474
