# .PCD v0.7 - Point Cloud Data file format
VERSION 0.7
FIELDS x y z
SIZE 4 4 4
TYPE F F F
COUNT 1 1 1
WIDTH 1256
HEIGHT 1
VIEWPOINT 0 0 0 1 0 0 0
POINTS 1256
DATA ascii
-0.035066493 -0.020726509 -0.088569731
-0.032745644 -0.022599282 -0.087359838
0.029590677 -0.024995353 -0.087735377
0.032831632 -0.022437269 -0.087468125
-0.035977338 -0.016875533 -0.087500118
-0.034542724 -0.018992197 -0.087259851
0.034482226 -0.018898996 -0.08757963
0.03597562 -0.016855044 -0.087527998
-0.037885506 -0.012411885 -0.087433673
0.037794262 -0.012484789 -0.08748915
-0.040181812 -0.0063015656 -0.087197155
-0.038930222 -0.0073715174 -0.087594099
0.038877182 -0.0073949113 -0.087416343
0.040020309 -0.0056638205 -0.086328797
-0.040373106 -0.0017030098 -0.087371893
-0.03945053 -0.0025754985 -0.087247461
0.039413016 -0.0025204201 -0.087448739
0.040270623 -0.0013068324 -0.087233223
-0.040284723 0.0020557404 -0.087820388
-0.03940862 0.0026622231 -0.087436035
0.039438002 0.0027674125 -0.087421335
0.040235113 0.0018589868 -0.087319501
-0.040185332 0.0059804595 -0.087574624
-0.038906511 0.0075172856 -0.087472193
0.038867019 0.0074788653 -0.087459184
-0.037687052 0.012625337 -0.087571956
0.037636515 0.012682476 -0.087611288
-0.035869654 0.016960137 -0.087553367
-0.034424979 0.019034408 -0.08722733
0.034485944 0.018798653 -0.087470382
0.035847727 0.017054256 -0.087480783
-0.035149381 0.020134982 -0.087501228
-0.032677196 0.022648079 -0.087513484
-0.029767847 0.024731774 -0.087716669
0.029526841 0.024851341 -0.087686613
0.032667197 0.022596858 -0.087390378
-0.030653531 0.025460716 -0.088135146
-0.028102664 0.027993122 -0.087441713
0.028097112 0.028007181 -0.087571777
0.030553957 0.025558883 -0.087696373
-0.02591081 0.030828319 -0.087729231
-0.022639265 0.032602333 -0.087480612
-0.019054508 0.034553196 -0.087548897
0.019176474 0.03454899 -0.087521724
0.022627387 0.032598674 -0.087485962
0.026121549 0.030551089 -0.087405145
-0.017056784 0.036223866 -0.087469406
-0.012456076 0.03779231 -0.087603934
-0.0075782705 0.039128546 -0.08760678
-0.0025079458 0.039689127 -0.087604813
0.0026344049 0.0397042 -0.08756125
0.0076272516 0.039134692 -0.087569088
0.012492274 0.037761342 -0.087545753
0.017076375 0.036175892 -0.087484352
-0.0057638893 0.040170878 -0.088452823
-0.0017549936 0.040148243 -0.087603055
0.0023149506 0.040134981 -0.08735171
0.0061363047 0.040037237 -0.088440783
-0.0060221446 -0.040130019 -0.082982153
-0.0016068261 -0.040130019 -0.082982153
0.0028084924 -0.040130019 -0.082982153
-0.020053767 -0.035113052 -0.083151057
-0.016847719 -0.036071595 -0.082634933
-0.012516368 -0.037476785 -0.082646668
-0.0076510422 -0.038871147 -0.082625493
-0.0024942725 -0.039394476 -0.082484439
0.0025312838 -0.039397396 -0.082470186
0.0077336878 -0.038856603 -0.082635909
0.012581618 -0.037463404 -0.0826419
0.016950835 -0.036007229 -0.082574539
-0.025878523 -0.030492421 -0.082735643
-0.022384284 -0.032595485 -0.082568534
-0.019221002 -0.034376532 -0.08234679
0.019210702 -0.034305099 -0.082434624
0.022490328 -0.032507528 -0.082576908
0.025892366 -0.03055422 -0.082409821
-0.030482341 -0.025816938 -0.082839459
-0.028119553 -0.027914183 -0.082529351
0.02801301 -0.028041568 -0.082583807
0.030532103 -0.025582066 -0.082847424
-0.035114408 -0.020834502 -0.083030418
-0.032600388 -0.022703348 -0.082433604
0.029717553 -0.024778549 -0.081103787
0.032640547 -0.022603264 -0.082507119
0.035167281 -0.020158693 -0.084139079
-0.036034409 -0.016877707 -0.082383327
-0.0344688 -0.019187167 -0.082241364
0.03454566 -0.019045612 -0.082645118
0.036036517 -0.016756117 -0.082404844
-0.037787165 -0.012578818 -0.082580633
0.037824042 -0.012513019 -0.08259891
-0.040127899 -0.0066172774 -0.082308985
-0.038897127 -0.0075319018 -0.082497671
0.038868953 -0.0076395506 -0.082599021
0.040027246 -0.006311141 -0.080940783
-0.040409621 -0.0016864763 -0.082499549
-0.039436016 -0.0024398391 -0.082369164
0.039401434 -0.0026460367 -0.082555555
0.040349044 -0.0014794606 -0.082198456
-0.040290613 0.0022709616 -0.082115933
-0.039401352 0.0028807768 -0.082333662
0.039408468 0.0026478332 -0.082631409
0.040201813 0.0023728837 -0.082376339
-0.040063847 0.0064512943 -0.083055712
-0.038883142 0.0074010207 -0.082513705
0.03885217 0.0074831946 -0.082656935
0.040002808 0.0057235062 -0.081083097
-0.037800588 0.012455312 -0.08254496
0.037714843 0.012510876 -0.082494192
-0.03587978 0.016879721 -0.08237642
-0.034498315 0.019048691 -0.082801871
0.034527566 0.018818647 -0.082378171
0.035941973 0.016856471 -0.082472377
-0.035123747 0.020553198 -0.081824049
-0.032690458 0.022632813 -0.082581595
-0.029767832 0.024731684 -0.081708148
0.029526856 0.024851371 -0.081680149
0.03272862 0.022663655 -0.082576208
-0.030576665 0.025625659 -0.082761906
-0.028065933 0.027980683 -0.082527533
0.028145984 0.027891938 -0.08255022
0.030615788 0.025369715 -0.082421884
-0.026021818 0.030697063 -0.0826573
-0.022512751 0.032684632 -0.082503326
-0.019248681 0.034500964 -0.082741514
0.019179715 0.034496967 -0.082801469
0.022450671 0.03273559 -0.082537651
0.025779326 0.030629488 -0.082907289
-0.017054936 0.036238126 -0.082465544
-0.012381535 0.037799101 -0.082557902
-0.0073527964 0.039192226 -0.082748257
-0.0022479191 0.039665189 -0.082563117
0.0025549554 0.039676435 -0.082577273
0.0074664592 0.039168049 -0.08265236
0.012514714 0.037731037 -0.082564376
0.017045587 0.036218744 -0.082544394
-0.006103856 0.04010601 -0.081218615
-0.0019667996 0.040166844 -0.082081676
0.0018284821 0.040162623 -0.082219526
0.0057663517 0.040098675 -0.082316607
-0.0060221446 -0.040130019 -0.077095076
-0.0016068261 -0.040130019 -0.077095076
0.0028084924 -0.040130019 -0.077095076
-0.020054013 -0.035113923 -0.077251956
-0.016940881 -0.036010537 -0.077696823
-0.012489298 -0.037456933 -0.07753326
-0.0075328751 -0.038908247 -0.077333689
-0.0022137095 -0.039446522 -0.077452973
0.0024926581 -0.039425708 -0.077508241
0.0075495755 -0.038905933 -0.077361204
0.012475711 -0.037441075 -0.077612311
0.017099295 -0.035942487 -0.077566616
-0.025776543 -0.030649997 -0.077487707
-0.022587709 -0.032473236 -0.077601135
-0.019099345 -0.034451265 -0.077432171
0.019083513 -0.034377344 -0.077279881
0.022460867 -0.032491624 -0.077580422
0.025745463 -0.030664084 -0.077366345
-0.030483684 -0.025868688 -0.077476203
-0.028127229 -0.027934879 -0.077521428
0.028210074 -0.027803075 -0.077623494
0.030442785 -0.025754729 -0.077685647
-0.035132822 -0.020507067 -0.077934943
-0.032653492 -0.022692699 -0.077492639
0.032700431 -0.022599855 -0.077598855
-0.035985664 -0.017009266 -0.077509873
-0.034612179 -0.018927539 -0.077377163
0.034510169 -0.018873073 -0.077461943
0.035915986 -0.017032269 -0.077452883
-0.037797641 -0.012540683 -0.077418804
0.037792265 -0.012392362 -0.077591188
-0.040113695 -0.0060186149 -0.077397898
-0.038944863 -0.0075715198 -0.07756722
0.03891686 -0.0074516158 -0.077521272
-0.040374469 -0.0016538478 -0.077580974
-0.039456476 -0.002541539 -0.077584736
0.039414801 -0.0026463941 -0.077604808
0.040279247 -0.0016472851 -0.077582888
-0.040325411 0.0023124376 -0.077644408
-0.039404616 0.0028669359 -0.077666
0.039420854 0.0027178421 -0.077645734
0.040276445 0.0018893853 -0.077344812
-0.040087685 0.0064380527 -0.076353818
-0.038867336 0.0075861877 -0.077549368
0.038913205 0.0073730568 -0.0776143
-0.037719835 0.012530866 -0.077502504
0.037699085 0.012510258 -0.0775664
-0.035968903 0.016931538 -0.0774654
-0.034492899 0.018861383 -0.077485099
0.034534097 0.018691923 -0.077603653
0.035972618 0.016821086 -0.077537961
-0.035426937 0.020025609 -0.078116208
-0.032703593 0.022636844 -0.077634923
-0.029767847 0.024731714 -0.077201799
0.029526871 0.0248514 -0.077175334
0.032706141 0.022603786 -0.077766232
-0.030638959 0.025546921 -0.077841848
-0.028173329 0.027839907 -0.077389024
0.028174054 0.027850416 -0.077592254
0.030456528 0.025583619 -0.077598453
-0.025942665 0.030728567 -0.077343553
-0.022450622 0.032733884 -0.077497959
-0.01904677 0.034544278 -0.077709243
0.019293049 0.034616169 -0.077543169
0.022389187 0.032737318 -0.077484682
0.025741523 0.030768145 -0.077460155
-0.020053992 0.035014104 -0.076639846
-0.016961999 0.036221437 -0.077571951
-0.01263393 0.037683081 -0.077532127
-0.0073971436 0.039165258 -0.077532187
-0.0020786689 0.039654341 -0.077583283
0.0024670053 0.03966476 -0.077495553
0.0074398178 0.039166778 -0.077462949
0.012641744 0.037685316 -0.077481329
0.01697748 0.036170635 -0.077521242
-0.0062038004 0.040058844 -0.076681204
-0.0022940109 0.040178597 -0.077367947
0.0020239996 0.040178698 -0.077368125
0.0055984678 0.040022802 -0.07730902
-0.0060221446 -0.040130019 -0.072679766
-0.001606826 -0.040130019 -0.072679766
0.0028084924 -0.040130019 -0.072679766
-0.020054303 -0.035114881 -0.072827503
-0.017014274 -0.036034029 -0.07252638
-0.01252217 -0.037442904 -0.072702058
-0.0075847479 -0.038871504 -0.0723138
-0.0024966036 -0.039384682 -0.072516277
0.0024702656 -0.039381232 -0.072445586
0.0075416858 -0.03887606 -0.072360769
0.012519758 -0.037414156 -0.072549053
0.017144995 -0.035924584 -0.072497822
-0.025955999 -0.030606834 -0.072297722
-0.02241252 -0.03256651 -0.072436377
-0.019130407 -0.03441998 -0.072725363
0.019232191 -0.034325257 -0.072570607
0.022514297 -0.032444853 -0.072487868
0.025799926 -0.030631164 -0.072519563
-0.030475399 -0.025883367 -0.072207965
-0.028039323 -0.027975591 -0.072433524
0.02803155 -0.027953396 -0.072501041
0.030413121 -0.025910068 -0.072372779
-0.035135221 -0.020769272 -0.073877819
-0.032818764 -0.022505367 -0.072330736
0.029780446 -0.024705525 -0.072953172
0.03276651 -0.022516709 -0.072390184
-0.036008961 -0.016844729 -0.072570018
-0.034626059 -0.019003667 -0.072585098
0.034604203 -0.018917209 -0.072547615
0.035957135 -0.016880646 -0.072627798
-0.037838053 -0.012423924 -0.072522104
0.037730318 -0.012573979 -0.072499469
-0.040117275 -0.0064329454 -0.07276044
-0.03895 -0.0073319552 -0.072493173
0.038887274 -0.0073243226 -0.072498746
0.040029339 -0.006321067 -0.074519575
-0.04038154 -0.0018819016 -0.072374254
-0.039439816 -0.0023627393 -0.072346978
0.039453279 -0.0024608672 -0.072569259
0.040315751 -0.0015022755 -0.072561093
-0.040333726 0.0021679143 -0.072575875
-0.039356682 0.0028842303 -0.0726116
0.039358173 0.0028224993 -0.072641879
0.040267155 0.0018674635 -0.072886527
-0.040068232 0.00707688 -0.073154613
-0.038923372 0.0074270144 -0.072513953
0.038848829 0.0073938575 -0.072531857
-0.037742976 0.012574022 -0.072462067
0.037681274 0.0126472 -0.072588593
-0.03593912 0.017060854 -0.072562769
-0.034511134 0.01884906 -0.072584689
0.034537628 0.018673763 -0.072517626
0.035954013 0.016949352 -0.072477229
-0.035134748 0.020402111 -0.070401751
-0.032735176 0.022588421 -0.072444953
-0.029767832 0.024731714 -0.072695404
0.029526856 0.024851371 -0.07267046
0.03272694 0.022580259 -0.072595641
-0.030706724 0.025544301 -0.072595134
-0.02814036 0.027942376 -0.072502114
0.028168809 0.027843308 -0.072608493
0.030570127 0.025521204 -0.072298393
-0.026028248 0.030683918 -0.072205424
-0.022618089 0.032624852 -0.072434276
-0.019110976 0.034476031 -0.072749354
0.019278456 0.03443094 -0.072552823
0.022591384 0.03262078 -0.072391525
0.025900757 0.030679312 -0.072527401
-0.020192554 0.035030689 -0.072447941
-0.017168937 0.036164097 -0.072412007
-0.012400552 0.037766751 -0.072546497
-0.0076477299 0.03915751 -0.072457835
-0.0023815695 0.039677728 -0.072452456
0.0024473574 0.039688308 -0.072456449
0.0075214682 0.039168462 -0.072472394
0.012409467 0.037762109 -0.072528198
0.017125444 0.036131833 -0.072489478
-0.0061794193 0.040087368 -0.073211476
-0.0026513408 0.040127523 -0.072014876
0.0027571574 0.040104516 -0.072245285
0.0057641012 0.040077366 -0.072959542
-0.0060221446 -0.040130019 -0.068264455
-0.0016068261 -0.040130019 -0.068264447
0.0028084924 -0.040130019 -0.068264455
-0.020054273 -0.035114821 -0.068403378
-0.017006448 -0.035998866 -0.067490473
-0.012447468 -0.037458364 -0.067460544
-0.0075698192 -0.038873587 -0.067685738
-0.0023125256 -0.039397735 -0.06752304
0.0024254993 -0.039387606 -0.06758713
0.0075623095 -0.038891632 -0.067675136
0.012442508 -0.037426997 -0.067441031
0.017058181 -0.036017343 -0.06765575
-0.025800474 -0.03057313 -0.067226343
-0.022639424 -0.032452159 -0.067660935
-0.019054679 -0.034504898 -0.06765449
0.019036576 -0.034428459 -0.067521326
0.022773396 -0.032342292 -0.067584857
0.025908714 -0.03057158 -0.067653604
-0.030675493 -0.025656264 -0.067703821
-0.028132984 -0.027904183 -0.067513652
0.024926353 -0.029932017 -0.068590961
0.028044859 -0.027961439 -0.067564107
0.0305377 -0.02552643 -0.067784384
-0.035086036 -0.02078216 -0.067073926
-0.032673318 -0.022667224 -0.067410104
0.02993718 -0.024815693 -0.066880181
0.032813214 -0.022498151 -0.067402631
-0.036009375 -0.016967721 -0.067541979
-0.034427427 -0.019230818 -0.067564681
0.034572229 -0.018811814 -0.067394495
0.036046494 -0.016921805 -0.067638084
-0.037789825 -0.012692314 -0.067582503
0.03775382 -0.012564668 -0.067651406
-0.040127698 -0.0063619143 -0.067161322
-0.038891934 -0.0075105778 -0.067353033
0.038881321 -0.007587526 -0.067529671
0.040027134 -0.0056783836 -0.067976847
-0.040373098 -0.0017812666 -0.067381978
-0.039428741 -0.0026129952 -0.067690343
0.039406549 -0.0027014646 -0.067424759
0.040296014 -0.0016794683 -0.06728413
-0.04032236 0.0020171793 -0.067666657
-0.039383039 0.002905485 -0.067591079
0.039378937 0.0029394764 -0.067407712
0.040197048 0.0021339753 -0.067433782
-0.040068999 0.0065741153 -0.066752419
-0.038878307 0.0074499859 -0.067455776
0.038872585 0.0074035851 -0.067679211
-0.037821416 0.01246651 -0.067597561
0.037703883 0.012363852 -0.067569025
-0.035881508 0.016951274 -0.06767533
-0.034493554 0.018965393 -0.06740915
0.034375463 0.018911114 -0.067371808
0.035854645 0.016952591 -0.067611247
-0.035231873 0.020134021 -0.067789748
-0.032686055 0.022748129 -0.067477934
-0.029767817 0.024731655 -0.066686913
0.029661085 0.0248194 -0.06759923
0.032744326 0.022615829 -0.067488559
-0.030545164 0.025618531 -0.067478225
-0.028175205 0.027856557 -0.067594267
0.028103279 0.02794908 -0.067394786
0.030693794 0.025402859 -0.06765189
-0.025959324 0.03068324 -0.067258552
-0.022648295 0.032590043 -0.067479625
-0.019323232 0.034479585 -0.067399584
0.019319631 0.034449201 -0.06750045
0.022616433 0.032621816 -0.067415178
0.025929514 0.030746665 -0.06731277
-0.017118359 0.036211625 -0.067649707
-0.012555769 0.037714098 -0.067658707
-0.00760224 0.039146751 -0.067497566
-0.0024752535 0.03967094 -0.067528635
0.0024861649 0.039684366 -0.067476407
0.0076471246 0.03913277 -0.067516558
0.012588095 0.037706815 -0.067635447
0.017089792 0.036184289 -0.067677677
-0.006308537 0.040107865 -0.067316063
-0.0027276292 0.040141743 -0.067666911
0.0027818456 0.040126033 -0.067847453
0.0058619571 0.040093187 -0.067425005
-0.0060221446 -0.040130019 -0.062377371
-0.0016068261 -0.040130019 -0.062377371
0.0028084924 -0.040130019 -0.062377371
-0.020054288 -0.035114881 -0.062504426
-0.017130569 -0.03598962 -0.062463157
-0.012686931 -0.037414599 -0.0624579
-0.0073437914 -0.038951393 -0.062632337
-0.0024569067 -0.039390028 -0.062497456
0.0025661476 -0.039380055 -0.06254895
0.0073992116 -0.038944721 -0.062581509
0.012515636 -0.037431121 -0.062470831
0.017046399 -0.036006141 -0.062597439
-0.025777737 -0.030597346 -0.062508799
-0.022500647 -0.032534014 -0.062483452
-0.018958513 -0.034486055 -0.063061178
0.018865023 -0.034492679 -0.062983453
0.022385625 -0.03253838 -0.06256251
0.025796626 -0.030598994 -0.062451668
-0.03058593 -0.025806744 -0.062650546
-0.028142599 -0.027903078 -0.062558658
0.028117659 -0.027916541 -0.062539436
0.03050112 -0.025588525 -0.062523387
-0.035198137 -0.020826193 -0.062175725
-0.032818116 -0.022526449 -0.062586486
0.029746175 -0.024818104 -0.062335629
0.032835599 -0.022375237 -0.06247459
0.035213042 -0.020086534 -0.06096964
-0.035959274 -0.016945845 -0.062375993
-0.0345084 -0.01905282 -0.062442895
0.03441919 -0.018975507 -0.062676206
0.035910025 -0.0169426 -0.062352404
-0.037849423 -0.012497451 -0.062602043
0.037739728 -0.012615362 -0.062573537
-0.040091649 -0.0063368804 -0.062421769
-0.038970087 -0.0074569872 -0.062445424
0.038854044 -0.0074259825 -0.06257268
0.040034931 -0.0063446388 -0.061507575
-0.040381886 -0.0018618051 -0.062474243
-0.039441232 -0.0026459647 -0.062630259
0.039375342 -0.0024748389 -0.062375955
0.040297009 -0.0018050652 -0.062445447
-0.040351395 0.0017080461 -0.062349919
-0.039399903 0.0029219135 -0.062476106
0.039372314 0.0028494908 -0.062388729
0.040235359 0.0016575378 -0.062449515
-0.040121593 0.0060035847 -0.063227095
-0.038880739 0.0073857782 -0.062509134
0.038883589 0.0073015154 -0.062555082
-0.037812807 0.012397057 -0.062503114
0.037694257 0.012517058 -0.062387761
-0.035868764 0.017005306 -0.062348008
-0.034462277 0.019031629 -0.062563367
0.034441154 0.018950021 -0.062281195
0.035865538 0.016970096 -0.062479608
-0.035248041 0.020525683 -0.062494114
-0.032709252 0.022697061 -0.062474944
-0.029767817 0.024731655 -0.0621805
0.029739598 0.024904856 -0.061997037
0.03277567 0.02252158 -0.062508211
0.035023421 0.02047516 -0.061812274
-0.030546365 0.025570182 -0.062455021
-0.02806141 0.027998757 -0.062608816
0.027980978 0.027994925 -0.062581733
0.030496527 0.025455005 -0.062674873
-0.025795704 0.030775571 -0.062337749
-0.022601649 0.032675371 -0.062683858
-0.019137595 0.03450365 -0.062541857
0.019190392 0.034537271 -0.062172752
0.022512272 0.032662462 -0.062688701
0.025921466 0.03068863 -0.062827207
-0.017001968 0.036214888 -0.062479056
-0.012601254 0.037678868 -0.062639736
-0.0076801185 0.039126419 -0.062611826
-0.0023305989 0.039652325 -0.062685564
0.0028243158 0.039663125 -0.0626036
0.0076291244 0.039125703 -0.062592864
0.012491165 0.037711538 -0.062532529
0.016936179 0.036197226 -0.062596366
-0.0056301965 0.040146258 -0.062147208
-0.0021586984 0.040123124 -0.062423199
0.0024864876 0.040138591 -0.0625365
0.0055999439 0.040181067 -0.061995424
-0.0060221446 -0.040130019 -0.056490287
-0.0016068261 -0.040130019 -0.056490287
0.0028084924 -0.040130019 -0.056490287
-0.020054273 -0.035114821 -0.056605529
-0.016963292 -0.036044214 -0.057449237
-0.01264145 -0.037420951 -0.057460662
-0.0076246937 -0.038872104 -0.057415035
-0.002417278 -0.039406832 -0.057414338
0.002531044 -0.039397117 -0.057459548
0.0075761867 -0.038865134 -0.057318006
0.012630026 -0.037408061 -0.05749061
0.017021937 -0.035952486 -0.057476725
-0.025847482 -0.030649023 -0.057500307
-0.02253559 -0.032516651 -0.057409663
-0.019074593 -0.034479424 -0.057436876
0.019031994 -0.034413211 -0.05746948
0.022504659 -0.032503095 -0.057447117
0.025709424 -0.030692969 -0.057308123
-0.03049585 -0.025771657 -0.057488088
-0.02810739 -0.027959207 -0.057440121
0.028027074 -0.027967449 -0.057461914
0.030423766 -0.025671016 -0.057148155
-0.035029747 -0.021329414 -0.058027428
-0.032730639 -0.022592917 -0.057563107
0.03266843 -0.022580713 -0.057507332
-0.036066305 -0.016745707 -0.057473343
-0.034561768 -0.018988885 -0.057126246
0.034452733 -0.019061282 -0.057341136
0.03601633 -0.016699737 -0.057566136
-0.037890263 -0.012442251 -0.057576913
0.037834924 -0.012368419 -0.057489939
-0.040104162 -0.006045395 -0.057289433
-0.038942695 -0.0075346162 -0.057499979
0.038885206 -0.007406469 -0.057479065
-0.040398322 -0.0017606838 -0.057509955
-0.039425977 -0.0025438564 -0.057410784
0.039446212 -0.0025799451 -0.057545826
0.040349722 -0.0015173304 -0.057694286
-0.040313769 0.0022421929 -0.057890218
-0.039388593 0.0028778221 -0.057657011
0.039389905 0.0028807172 -0.057513297
0.040247928 0.0019894827 -0.057773035
-0.040104315 0.0063448651 -0.057896513
-0.038916361 0.0074379942 -0.057445038
0.038870856 0.00751684 -0.057396702
-0.037731487 0.012622625 -0.057428639
0.037693005 0.012606882 -0.057317119
-0.035953309 0.016965734 -0.057624083
-0.034476679 0.018942738 -0.057533886
0.034421246 0.018750628 -0.057265606
0.035771724 0.017156398 -0.05744803
-0.032764368 0.022617245 -0.057440039
-0.029844971 0.024748163 -0.057750721
0.029526856 0.024851371 -0.057654288
0.0327693 0.022536067 -0.057395328
-0.030446537 0.02582383 -0.057511888
-0.028095854 0.027930154 -0.057500772
0.028161762 0.027849359 -0.057488065
0.030381382 0.025662636 -0.057965573
-0.025835296 0.030762795 -0.057463825
-0.022584597 0.032654952 -0.057573721
-0.019263167 0.034555472 -0.057139404
0.019192435 0.034560442 -0.057199858
0.02253174 0.032661039 -0.057595417
0.025837943 0.030676236 -0.057636969
-0.016987087 0.036237836 -0.057608701
-0.012567946 0.037739903 -0.057453182
-0.0075112758 0.039160244 -0.057389006
-0.0022494087 0.039657909 -0.057429988
0.002567084 0.039679628 -0.057488702
0.0074794204 0.039154343 -0.057396114
0.012559193 0.037732281 -0.057506215
0.016880894 0.036241427 -0.057516892
-0.0059468551 0.040148284 -0.057393186
-0.0018298629 0.040127207 -0.057128966
0.0018277917 0.040106386 -0.057068586
0.0055866647 0.04012794 -0.057461865
-0.0060221446 -0.040130019 -0.052074976
-0.001606826 -0.040130019 -0.052074976
0.0028084924 -0.040130019 -0.052074976
-0.020054303 -0.035114881 -0.052181404
-0.01702694 -0.035963465 -0.052392401
-0.012642013 -0.03738486 -0.052531112
-0.0077249915 -0.038812719 -0.052352317
-0.0024988961 -0.039405949 -0.052424416
0.0024256893 -0.039400253 -0.05246586
0.0075742188 -0.038830653 -0.052288126
0.012587762 -0.037386093 -0.052447829
0.017095165 -0.035928573 -0.052479487
-0.025802417 -0.030568505 -0.052547481
-0.02248266 -0.032523088 -0.052444261
-0.019165033 -0.03441323 -0.052736919
0.01920555 -0.034384452 -0.052573305
0.022481371 -0.032455027 -0.05254662
0.025637629 -0.030722151 -0.052365854
-0.030524017 -0.025813824 -0.052772127
-0.028116304 -0.027913682 -0.052385762
0.028009282 -0.027921874 -0.05252948
0.030552285 -0.025638254 -0.052508511
-0.035115674 -0.020969279 -0.052997805
-0.032724064 -0.022615777 -0.052312151
-0.029972741 -0.024671052 -0.053430624
0.029667571 -0.024837932 -0.052164525
0.032728016 -0.022590624 -0.052462697
-0.03599257 -0.016960809 -0.052629318
-0.034470554 -0.019277889 -0.052380711
0.034376491 -0.019236723 -0.052014273
0.035991449 -0.016965872 -0.052765906
-0.037782397 -0.012661966 -0.052556481
0.037679829 -0.012701233 -0.05249121
-0.040050026 -0.0065729055 -0.052836623
-0.038921714 -0.0075488398 -0.052510187
0.038879637 -0.0076017221 -0.052456461
0.040033303 -0.0056880517 -0.052563377
-0.040374018 -0.0018859786 -0.052723531
-0.039434016 -0.0024614786 -0.052377723
0.039388828 -0.0025357998 -0.052575946
0.040324792 -0.001862041 -0.052261617
-0.040351357 0.0022206686 -0.052631695
-0.039401151 0.0027981438 -0.052342977
0.039302528 0.0027770104 -0.052592773
0.040263746 0.0020843281 -0.052710876
-0.040039219 0.0064078718 -0.052668072
-0.038887635 0.0075179911 -0.052581783
0.038816366 0.0074876747 -0.052471723
-0.037783641 0.012489466 -0.052503403
0.03762234 0.012603521 -0.052492876
-0.035884973 0.01706755 -0.05271491
-0.034481935 0.018961811 -0.052594751
0.034493893 0.01887878 -0.052528705
0.035932291 0.016918791 -0.052718561
-0.032714143 0.022679972 -0.052454866
-0.029826336 0.024768567 -0.051608589
0.029613942 0.024840185 -0.052178916
0.032756932 0.022575514 -0.052437712
-0.030571278 0.025617642 -0.05298119
-0.028119875 0.027951077 -0.052470472
0.028076589 0.027934726 -0.052462764
0.030473957 0.025555424 -0.052480005
-0.025970152 0.030701693 -0.052600168
-0.022520857 0.032710399 -0.052585959
-0.019284947 0.034434918 -0.052471168
0.01940031 0.034444936 -0.052597757
0.022655798 0.032603923 -0.052542441
0.025941344 0.030689565 -0.052678
-0.017145475 0.036204759 -0.052497152
-0.01252694 0.037755381 -0.052484978
-0.0074846167 0.039220855 -0.05241847
-0.0023652806 0.039679509 -0.052419737
0.0024333764 0.039689917 -0.052316383
0.0074028447 0.039234251 -0.052536838
0.012574051 0.037743673 -0.052449849
0.017278872 0.036065824 -0.052500248
-0.0059915674 0.040124197 -0.052299798
-0.0028079818 0.040130042 -0.052756008
0.0028657748 0.040136911 -0.052669872
0.0058078715 0.040114705 -0.052595913
-0.0060221446 -0.040130019 -0.047659665
-0.0016068261 -0.040130019 -0.047659665
0.0028084924 -0.040130019 -0.047659665
-0.020054288 -0.035114881 -0.04775719
-0.016950777 -0.0360315 -0.047547139
-0.012619079 -0.037422683 -0.047552895
-0.0075239297 -0.03888157 -0.047439091
-0.002464839 -0.039404016 -0.047416158
0.0026564512 -0.03938381 -0.047526747
0.0075604292 -0.038876966 -0.047507308
0.012598655 -0.037396073 -0.047502175
0.016942114 -0.03599127 -0.047764804
-0.025697313 -0.030565778 -0.047702134
-0.022454638 -0.032592263 -0.047550164
-0.019169327 -0.034402106 -0.047488879
0.019239334 -0.034401339 -0.047340572
0.022581633 -0.03244501 -0.047596127
0.025613753 -0.030669492 -0.047690604
-0.030576352 -0.025832642 -0.047410581
-0.028172012 -0.027931932 -0.047415692
0.028027428 -0.028024958 -0.047477115
0.030501334 -0.025618441 -0.0477097
-0.035210773 -0.020525616 -0.046928305
-0.032666422 -0.022623802 -0.047459524
0.029903464 -0.024503311 -0.04762217
0.032802269 -0.022427123 -0.047616661
-0.035959922 -0.01698073 -0.047476891
-0.034468047 -0.019243417 -0.047678314
0.034471314 -0.018792324 -0.047602955
0.035937667 -0.016866151 -0.047513302
-0.037751142 -0.012773168 -0.047535367
0.037678692 -0.012629825 -0.047499739
-0.040124256 -0.006155218 -0.049104415
-0.038915351 -0.007665446 -0.047500867
0.038845941 -0.0074513922 -0.047577996
0.040039878 -0.0063667689 -0.048264042
-0.040383462 -0.0018456026 -0.047445055
-0.039417431 -0.002547479 -0.047508046
0.039386511 -0.0026270899 -0.04765074
0.04027145 -0.0015962957 -0.047560696
-0.040267583 0.0022676545 -0.047413137
-0.039427605 0.0026546579 -0.047518585
0.039414592 0.0027851195 -0.047594979
0.04024535 0.0016390037 -0.047385689
-0.040107813 0.0062664361 -0.047841623
-0.038899831 0.0073627532 -0.047474902
0.038913999 0.0072570783 -0.047556031
-0.037756044 0.012683385 -0.047572471
0.037703998 0.012482863 -0.047580592
-0.035980418 0.016993104 -0.047528621
-0.034492396 0.019058613 -0.047439486
0.034467828 0.01893614 -0.04765816
0.035871968 0.016989525 -0.047444992
-0.032737017 0.022644153 -0.047691874
-0.02982739 0.024817836 -0.046093889
0.029687213 0.024801774 -0.046501629
0.03264698 0.022670608 -0.047458306
-0.030678237 0.025581319 -0.047291167
-0.028126454 0.02790031 -0.047555275
0.028010819 0.02795234 -0.04763544
0.030600281 0.025561951 -0.047027554
-0.025928842 0.030684667 -0.047615603
-0.022644898 0.032623544 -0.047611244
-0.019257704 0.034524638 -0.047705241
0.019241506 0.034465931 -0.047503538
0.022586606 0.032627117 -0.047651939
0.02587299 0.03071793 -0.047375724
-0.020325251 0.035074268 -0.047673695
-0.017102605 0.036198638 -0.0476023
-0.01257063 0.037712757 -0.047558479
-0.0076121958 0.039112404 -0.047550045
-0.0023273325 0.039634127 -0.047517717
0.0026404951 0.039650679 -0.047591776
0.0076639443 0.03909675 -0.047562804
0.012527876 0.037716188 -0.047625657
0.01711903 0.03613501 -0.047569476
-0.0061333403 0.040077299 -0.047830418
-0.0023738137 0.040109444 -0.047669698
0.0024238026 0.040105801 -0.047808431
0.0058453348 0.040087786 -0.047763251
-0.0060221446 -0.040130019 -0.041772585
-0.0016068261 -0.040130019 -0.041772585
0.0028084924 -0.040130019 -0.041772585
-0.020054288 -0.035114851 -0.041858282
-0.016995735 -0.035984334 -0.042361971
-0.012449636 -0.037528027 -0.042391673
-0.0076455707 -0.038873278 -0.042366549
-0.0024065163 -0.039389744 -0.04232987
0.0024490154 -0.039405186 -0.042373195
0.0074891262 -0.038885891 -0.042362709
0.012369657 -0.03749343 -0.042321227
0.016989263 -0.035952535 -0.042554479
-0.02585608 -0.030683629 -0.042378087
-0.022508303 -0.03252757 -0.042497229
-0.0191889 -0.034415003 -0.042637922
0.019201964 -0.034330912 -0.042511325
0.022533394 -0.032438546 -0.042596821
0.02578602 -0.03061318 -0.042300511
-0.030485261 -0.025729422 -0.042339593
-0.028005438 -0.028096737 -0.042380314
0.028179644 -0.027820285 -0.042357914
0.030476533 -0.025577785 -0.042540595
-0.035030186 -0.021331334 -0.042915385
-0.032761633 -0.022600569 -0.042406507
-0.029965719 -0.024956644 -0.044112436
0.032694165 -0.022567997 -0.042688064
-0.036016431 -0.016908826 -0.042249158
-0.034657136 -0.018765887 -0.042800967
0.034517791 -0.018519105 -0.042390469
0.035881776 -0.017074635 -0.042361412
-0.037858453 -0.01253003 -0.042436779
0.037825588 -0.01246656 -0.042485531
-0.040123835 -0.0065972558 -0.042983517
-0.038984999 -0.0075546182 -0.042462938
0.038881656 -0.0075574135 -0.042491712
0.040042765 -0.0063788835 -0.041553609
-0.040392436 -0.0017592808 -0.042242531
-0.039433919 -0.0026307558 -0.04263249
0.039436996 -0.0025675625 -0.042514462
0.040288255 -0.001622699 -0.042385336
-0.040322307 0.0019933598 -0.042770069
-0.039370265 0.0026919257 -0.042688876
0.039342228 0.0026739342 -0.042751618
0.04026705 0.0019319898 -0.042302776
-0.040112335 0.0066032838 -0.042744804
-0.038889516 0.0073811947 -0.042548962
0.038878754 0.0073597687 -0.042629618
-0.037735555 0.01265167 -0.042418618
0.03776326 0.012504553 -0.042512406
-0.035908252 0.017006341 -0.04238113
-0.034442373 0.019009948 -0.042462371
0.03440227 0.018894643 -0.042545326
0.035804387 0.017045569 -0.04218594
-0.03513886 0.020377889 -0.042427793
-0.032691903 0.022682676 -0.042639244
-0.029767832 0.024731684 -0.042652871
0.029675717 0.024762042 -0.042141009
0.032658145 0.022637868 -0.042546626
0.03518679 0.020095047 -0.041222502
-0.03059019 0.025550339 -0.042452179
-0.028079664 0.027967347 -0.042413563
0.028022911 0.027970152 -0.042437248
0.030513935 0.025497558 -0.04233288
-0.025960406 0.030677442 -0.042631108
-0.0224638 0.032753196 -0.042443432
-0.01896375 0.034557886 -0.042490572
0.019047949 0.034551181 -0.041904416
0.022454619 0.032684501 -0.042512462
0.025938373 0.030680357 -0.042619426
-0.01732575 0.036048587 -0.042464256
-0.012697279 0.037695285 -0.04256279
-0.0075620487 0.039161395 -0.042549945
-0.0023285705 0.039661098 -0.042477183
0.0023939947 0.039673578 -0.042509999
0.0075279716 0.039150909 -0.042467538
0.012625809 0.037714012 -0.042518873
0.017217092 0.036063876 -0.042685755
-0.0057597188 0.040166438 -0.043733351
-0.0023866438 0.040111609 -0.042685658
0.0027629377 0.040126424 -0.042423092
0.0056275302 0.04012356 -0.04364489
-0.0060221446 -0.040130019 -0.037357274
-0.001606826 -0.040130019 -0.037357274
0.0028084924 -0.040130019 -0.037357274
-0.020054303 -0.035114881 -0.037434112
-0.016987497 -0.035988573 -0.037198607
-0.012533241 -0.037408676 -0.037525002
-0.0074773659 -0.038879752 -0.037578736
-0.0023498698 -0.039383844 -0.037463065
0.0025154075 -0.039378084 -0.037497114
0.0075085824 -0.038869336 -0.037505899
0.012501339 -0.037403967 -0.037485417
0.016947255 -0.035930932 -0.037210919
-0.025625834 -0.030617446 -0.037553087
-0.022369498 -0.032562789 -0.037498936
-0.019004114 -0.034532137 -0.037689846
0.019089341 -0.034443006 -0.037856437
0.022296254 -0.032555398 -0.037400689
0.025602514 -0.030581746 -0.037352268
-0.030445324 -0.025889289 -0.03749733
-0.028149083 -0.027861817 -0.037436314
0.028130436 -0.027797153 -0.03748956
0.030518252 -0.025665531 -0.037629224
-0.035167266 -0.020930683 -0.037756458
-0.032738429 -0.022633199 -0.037513867
0.029690981 -0.024954656 -0.038673829
0.032835025 -0.02238841 -0.037568871
0.035260268 -0.020009737 -0.036948025
-0.03605634 -0.016924502 -0.037500177
-0.034459181 -0.019235782 -0.037463326
0.034520201 -0.018874628 -0.037465725
0.035912968 -0.017116623 -0.037681792
-0.037752248 -0.012508607 -0.037340909
0.037603278 -0.012769243 -0.037512381
-0.040080365 -0.0063475966 -0.037311312
-0.038913969 -0.0074740853 -0.037517648
0.03886243 -0.0074500572 -0.037198618
-0.040343519 -0.001476744 -0.037050813
-0.039448302 -0.0025820429 -0.037365716
0.039363239 -0.0024722805 -0.037431207
0.040312286 -0.0016336543 -0.037221823
-0.040258508 0.0027307933 -0.037180059
-0.039415561 0.002721169 -0.037108388
0.039333623 0.0027256669 -0.037434876
0.040264506 0.0019491102 -0.036967676
-0.040068232 0.00707688 -0.036910843
-0.038957231 0.0076559372 -0.037572503
0.038864855 0.0074721309 -0.037510417
-0.037754346 0.012537245 -0.037590344
0.037602849 0.012661143 -0.037557241
-0.035977013 0.017028321 -0.03734364
-0.034509957 0.018933177 -0.037623338
0.034487452 0.018844148 -0.037440941
0.035936497 0.016925937 -0.037326306
-0.035078246 0.020259133 -0.03915539
-0.032697365 0.022707738 -0.037416175
-0.029788839 0.02481045 -0.037264794
0.029653393 0.024796635 -0.03727052
0.032795999 0.022506813 -0.037611384
-0.030626962 0.0254474 -0.037291292
-0.028217372 0.027890027 -0.037504554
0.028271658 0.027730236 -0.037347112
0.030581344 0.02550705 -0.037392285
-0.025904367 0.030672099 -0.037582926
-0.022471337 0.032749563 -0.037455514
-0.019226843 0.034536082 -0.037527326
0.019288015 0.034547556 -0.03763932
0.022537885 0.032663919 -0.03754364
0.025715176 0.030705556 -0.03759411
-0.017063076 0.036233924 -0.037418582
-0.012519396 0.037792776 -0.037456572
-0.007461512 0.039217107 -0.037735391
-0.0021809037 0.039663885 -0.037285428
0.0026441086 0.03968275 -0.037542135
0.0074253837 0.039201461 -0.037657745
0.012493014 0.037755076 -0.037417088
0.017075162 0.036154252 -0.037483759
-0.0062644589 0.04004344 -0.038689416
-0.0024601812 0.040136155 -0.037279475
0.0026368597 0.040122345 -0.037305299
0.0058595231 0.040048614 -0.038634989
-0.0060221446 -0.040130019 -0.032941964
-0.0016068261 -0.040130019 -0.032941964
0.0028084924 -0.040130019 -0.032941964
-0.020054273 -0.035114821 -0.033009913
-0.016961895 -0.03599976 -0.032409672
-0.01251411 -0.037469003 -0.032649938
-0.0077056517 -0.038844001 -0.032594558
-0.0024651845 -0.039424233 -0.032648403
0.0024014288 -0.03942078 -0.032659777
0.0076102177 -0.038844567 -0.032620609
0.012497156 -0.037460972 -0.032574691
0.017028121 -0.0359287 -0.032618042
-0.025725899 -0.030646781 -0.03274706
-0.022308618 -0.032645777 -0.032502659
-0.019152213 -0.034434024 -0.032469023
0.019074155 -0.034399457 -0.032062706
0.022265431 -0.032596 -0.032617114
0.02578556 -0.030596444 -0.03263313
-0.030478016 -0.025837498 -0.032631252
-0.028161353 -0.027868802 -0.032449756
0.028111726 -0.027770305 -0.032502152
0.030423975 -0.025743069 -0.032640543
-0.03524854 -0.020699855 -0.032290131
-0.03294953 -0.022329215 -0.032364149
0.032880645 -0.022284502 -0.032543153
-0.035957705 -0.016956061 -0.032635711
-0.034556441 -0.019176466 -0.032819904
0.034485262 -0.018742913 -0.032517884
0.035963517 -0.016891984 -0.032781456
-0.03778477 -0.01265897 -0.032470919
0.037749272 -0.012590555 -0.032656837
-0.040108625 -0.0064069317 -0.033855136
-0.038971253 -0.007709533 -0.032751188
0.038855337 -0.007491773 -0.032413963
0.040040087 -0.0057034455 -0.033514474
-0.040380619 -0.0018675481 -0.032860186
-0.039412286 -0.0025783577 -0.032455008
0.039369747 -0.0026629406 -0.032580167
0.04026188 -0.0016607881 -0.03257402
-0.04035924 0.0022786763 -0.032445934
-0.039384026 0.0027630851 -0.032666918
0.039344665 0.0027632366 -0.032682184
0.040265564 0.0020683934 -0.03222404
-0.040048901 0.0070806197 -0.032867614
-0.038913399 0.0074387356 -0.032513913
0.038844738 0.0074276687 -0.032485407
-0.03768523 0.012711405 -0.032645747
0.037534926 0.012706184 -0.032647353
-0.035964325 0.016948774 -0.03255802
-0.034427214 0.019056 -0.03262011
0.034415253 0.018974165 -0.032846626
0.035943702 0.016867438 -0.032468058
-0.035213135 0.020410065 -0.03243766
-0.032815885 0.022544615 -0.032483377
-0.029767847 0.024731774 -0.032138031
0.029745832 0.024737028 -0.031715594
0.032774318 0.02248762 -0.032468494
0.035277355 0.020194231 -0.032645617
-0.030590879 0.025719857 -0.032607161
-0.028130908 0.027945461 -0.032719366
0.027968666 0.028056117 -0.032574452
0.030522479 0.025508242 -0.032441411
-0.025980514 0.030651657 -0.032475319
-0.022541935 0.032693591 -0.032474589
-0.019107895 0.034526642 -0.032838985
0.019339954 0.034495935 -0.032716047
0.022585381 0.032613833 -0.032495879
0.025843024 0.030647766 -0.032569174
-0.020158526 0.035143416 -0.031416599
-0.017294524 0.036053974 -0.032509621
-0.01270133 0.037708405 -0.032654583
-0.0077559603 0.039095074 -0.032643724
-0.0024545053 0.039645497 -0.032486882
0.0025372207 0.039665915 -0.03251056
0.0077681919 0.039077044 -0.032714851
0.012722289 0.037667688 -0.032695979
0.017297981 0.036029328 -0.032478627
-0.0063927146 0.040094875 -0.031548966
-0.0020679047 0.040138043 -0.032287154
0.0019186316 0.040134653 -0.032381464
0.0058386303 0.040110998 -0.031405915
-0.0060221446 -0.040130019 -0.027054884
-0.0016068261 -0.040130019 -0.027054884
0.0028084924 -0.040130019 -0.027054884
-0.020054288 -0.035114851 -0.027111052
-0.017141998 -0.035986904 -0.027456472
-0.012678229 -0.037407279 -0.027583551
-0.0078194998 -0.038811691 -0.027489789
-0.002399219 -0.039400682 -0.027407302
0.0023550235 -0.039392717 -0.027419982
0.007564621 -0.038871311 -0.027465101
0.012556515 -0.037406873 -0.027530318
0.017176813 -0.035922851 -0.027561586
-0.025917413 -0.030539691 -0.027157564
-0.022507796 -0.032505922 -0.027637489
-0.019104322 -0.034575287 -0.027393512
0.019241821 -0.034274638 -0.027548799
0.02241306 -0.032511376 -0.027571702
0.025772508 -0.030591778 -0.027166927
-0.030577047 -0.025701219 -0.027367391
-0.02813849 -0.027946547 -0.027662935
0.028120996 -0.027880233 -0.02760157
0.030462487 -0.025593188 -0.027260259
-0.035160679 -0.020615153 -0.027115598
-0.032793511 -0.022566833 -0.027413912
0.032670137 -0.022598999 -0.027585322
-0.036007479 -0.016946048 -0.027511679
-0.034528948 -0.018865455 -0.027529864
0.034548312 -0.018804584 -0.027405161
0.035888404 -0.017019968 -0.027527416
-0.037810598 -0.012645388 -0.027425863
0.037716247 -0.012512564 -0.0275135
-0.040123828 -0.0062878719 -0.027969532
-0.038910352 -0.0076383851 -0.027579457
0.038843829 -0.0076697469 -0.027763676
0.040047854 -0.0064016804 -0.027951051
-0.040354587 -0.0014843872 -0.027613368
-0.039434019 -0.0026001863 -0.027899027
0.039406005 -0.0026560395 -0.027579486
0.040295437 -0.0016021822 -0.02775106
-0.040322311 0.0021378654 -0.027825018
-0.039407149 0.0026695656 -0.027876906
0.039370991 0.0025781763 -0.027829569
0.040273666 0.0019285332 -0.027370561
-0.040084653 0.0059298738 -0.027415473
-0.038852639 0.0074132076 -0.027576178
0.038868114 0.0074729724 -0.027630761
0.040119354 0.0050465018 -0.029663235
-0.037745651 0.012795791 -0.027437992
0.037642639 0.012745246 -0.027361423
-0.035957001 0.016816638 -0.027418749
-0.034464993 0.018892867 -0.027569484
0.034437075 0.01877539 -0.027807556
0.035838436 0.016929295 -0.027474502
-0.035232194 0.020532042 -0.025967266
-0.032713011 0.02268504 -0.027482811
-0.029767847 0.024731744 -0.027631639
0.029680951 0.024888232 -0.027815541
0.032738227 0.022544971 -0.027437244
0.035022847 0.020540088 -0.02889399
-0.030578906 0.025702346 -0.027283378
-0.028062364 0.028037118 -0.027440438
0.027996402 0.028022859 -0.027561113
0.030405119 0.025587833 -0.027604714
-0.025951888 0.03070201 -0.02780124
-0.022627616 0.032639965 -0.027444564
-0.019319339 0.034473415 -0.027321735
0.019149223 0.03450888 -0.027549608
0.022384085 0.032762207 -0.027469717
0.026018951 0.030631324 -0.027727034
-0.01718343 0.036182389 -0.027681211
-0.012634252 0.037723284 -0.027485464
-0.007516827 0.039155632 -0.027428245
-0.0022140783 0.039637171 -0.027366465
0.0024169269 0.039643735 -0.027280856
0.0074750353 0.039170668 -0.027407734
0.012669732 0.037687153 -0.027545642
0.01695496 0.036231089 -0.027432377
-0.0056018429 0.040080011 -0.027532976
-0.0024234341 0.040088806 -0.027833704
0.002629484 0.040080581 -0.027800305
0.0055592768 0.040075958 -0.028134892
-0.0060221446 -0.040130019 -0.022639574
-0.001606826 -0.040130019 -0.022639574
0.0028084924 -0.040130019 -0.022639574
-0.020054273 -0.035114821 -0.022686852
-0.016985435 -0.035970129 -0.022403635
-0.012595073 -0.037391707 -0.022618124
-0.0073395306 -0.03890669 -0.022321504
-0.0023109221 -0.039361738 -0.022582918
0.0026263848 -0.039379057 -0.022615444
0.0073765297 -0.038859006 -0.02239283
0.012503241 -0.037397996 -0.022558004
0.016948042 -0.035908744 -0.022470532
-0.025824668 -0.030571373 -0.022766449
-0.022551917 -0.032489348 -0.02261932
-0.019071195 -0.034432258 -0.022649797
0.018974015 -0.034493923 -0.022681881
0.022430945 -0.032499474 -0.022642778
0.025925817 -0.030431597 -0.022661462
-0.030535292 -0.025869325 -0.022641825
-0.02806752 -0.028014595 -0.022503112
0.028204368 -0.027719487 -0.02253996
0.030580038 -0.025483385 -0.02266359
-0.035030201 -0.021331364 -0.021758912
-0.032724269 -0.022585604 -0.022508757
-0.029916639 -0.024974674 -0.024484504
0.029849213 -0.024928899 -0.022525806
0.032848272 -0.022367688 -0.022604726
0.035042811 -0.020049982 -0.024744224
-0.036037389 -0.017039685 -0.022572218
-0.034662798 -0.018899983 -0.02201863
0.034485459 -0.018739218 -0.022774795
0.035916768 -0.017019991 -0.022481648
-0.037772376 -0.012672114 -0.022437245
0.037749872 -0.012502597 -0.022385353
-0.040104195 -0.0061919745 -0.021024806
-0.039001841 -0.0075494205 -0.022266867
0.038870674 -0.0074188309 -0.022427525
0.040050853 -0.0064141918 -0.021057619
-0.040382706 -0.001869565 -0.02229639
-0.039441742 -0.0023972013 -0.022492783
0.039359931 -0.0024215444 -0.022391241
0.040330205 -0.0017383777 -0.022426104
-0.040339947 0.0020981657 -0.022197669
-0.039395049 0.0028221768 -0.022242291
0.03931991 0.0028645797 -0.022354342
0.040272228 0.0022363989 -0.022374807
-0.040068202 0.0070769098 -0.022728516
-0.038959198 0.0074325716 -0.022283643
0.038836144 0.0075301682 -0.022471908
-0.037805662 0.012590251 -0.022590244
0.037697114 0.012540741 -0.022411698
-0.035860606 0.017201768 -0.022243125
-0.03440934 0.018945431 -0.022350941
0.034397572 0.018755751 -0.022337809
0.035906706 0.016950663 -0.022337791
-0.035059921 0.020153839 -0.022339307
-0.032726351 0.022656381 -0.02247698
-0.029767847 0.024731714 -0.021623148
0.029571196 0.02488563 -0.021621173
0.032673277 0.022655919 -0.022481482
-0.030809851 0.025521604 -0.022677878
-0.028143281 0.027924333 -0.02238049
0.028018966 0.028007219 -0.02245827
0.030519417 0.025537319 -0.022629075
-0.025768088 0.03078486 -0.022632223
-0.022525102 0.032749478 -0.022423437
-0.019113973 0.034502517 -0.022558406
0.019200351 0.034483824 -0.022189585
0.022525869 0.032678336 -0.022605928
0.02583904 0.03067692 -0.02237244
-0.020174475 0.035082385 -0.02112316
-0.017141353 0.03622764 -0.022299146
-0.012657166 0.037737593 -0.022532701
-0.0077571375 0.03915523 -0.022351
-0.0024874194 0.0396786 -0.022328813
0.0025559 0.039694056 -0.022352546
0.007612857 0.039166581 -0.02230827
0.012456328 0.037763644 -0.02256408
0.017038425 0.036238246 -0.022398865
-0.0058810771 0.040099569 -0.022124222
-0.0022204188 0.040105734 -0.022313396
0.002320128 0.040112372 -0.022563169
0.005659278 0.040133074 -0.023024036
-0.0060221446 -0.040130019 -0.018224264
-0.0016068261 -0.040130019 -0.018224264
0.0028084924 -0.040130019 -0.018224264
-0.020054303 -0.035114881 -0.018262682
-0.017093064 -0.035992764 -0.017610386
-0.012664787 -0.037427034 -0.01760157
-0.0077308873 -0.038833041 -0.01753217
-0.0025401171 -0.039391853 -0.017475899
0.0026168192 -0.039384812 -0.017531307
0.0075522475 -0.038883988 -0.017563149
0.012623095 -0.037390079 -0.017579021
0.017162425 -0.0359185 -0.017552685
-0.025747443 -0.030732941 -0.017885052
-0.022603894 -0.032474417 -0.01748606
-0.019107834 -0.034418736 -0.017437691
0.019215876 -0.034304593 -0.017566837
0.022546554 -0.032418288 -0.017615143
0.025701944 -0.030652316 -0.017903643
-0.030591354 -0.025831515 -0.017997803
-0.028204471 -0.027868878 -0.017583553
0.028019371 -0.027950423 -0.017622927
0.030357659 -0.025799308 -0.017649377
-0.03516151 -0.020819206 -0.018218277
-0.032790396 -0.022591 -0.017579203
0.029700626 -0.024957146 -0.01609613
0.032657515 -0.022597939 -0.01743532
-0.035999537 -0.017031617 -0.017541246
-0.034683429 -0.018747069 -0.01734004
0.034618568 -0.018736573 -0.017713236
0.035965025 -0.016813783 -0.01761993
-0.037737101 -0.01268464 -0.017633524
0.037675079 -0.012644428 -0.017494038
-0.040107239 -0.0061808159 -0.017729226
-0.038926344 -0.00759356 -0.017664677
0.038812384 -0.007690202 -0.017414648
-0.040374517 -0.0016868716 -0.017625062
-0.039459046 -0.0026679705 -0.017282231
0.039428107 -0.002579516 -0.017599473
0.040307224 -0.0017504435 -0.017867522
-0.04030709 0.0021828364 -0.017589102
-0.039395235 0.0028055909 -0.017230781
0.039345935 0.002670289 -0.017543226
0.040248077 0.0018560875 -0.017778751
-0.040134296 0.0063405121 -0.017435674
-0.038949937 0.0075146742 -0.017391214
0.038847972 0.007370126 -0.017274648
0.040088356 0.0051330756 -0.017469764
-0.037677422 0.012725339 -0.017664399
0.037575793 0.01267373 -0.017551724
-0.035867687 0.017268354 -0.017562848
-0.034483727 0.018727204 -0.01728853
0.03444206 0.018788006 -0.016976135
0.035911322 0.016977077 -0.017704906
-0.032866709 0.022472249 -0.017464578
-0.029767847 0.024731714 -0.017116738
0.029526871 0.0248514 -0.017110659
0.032743465 0.02251941 -0.017626204
-0.03047617 0.025678085 -0.017975191
-0.028086312 0.028075743 -0.017652759
0.028155752 0.027855318 -0.017784907
0.030579623 0.025560273 -0.017226286
-0.025795216 0.03084776 -0.017073732
-0.022409409 0.032782514 -0.017503526
-0.019110914 0.034508023 -0.017917847
0.019002715 0.034546144 -0.017673176
0.022398142 0.032737788 -0.017599152
0.025718966 0.030728087 -0.017260917
-0.020154361 0.035023768 -0.01540449
-0.017266979 0.036131635 -0.017502401
-0.012591195 0.037731029 -0.017498026
-0.007632738 0.039117076 -0.017702661
-0.0023386485 0.039629955 -0.017610999
0.0025848437 0.039652575 -0.017556954
0.0076648206 0.039094023 -0.017651679
0.012608248 0.037683494 -0.017558202
0.01724777 0.036075778 -0.017528761
-0.0060035978 0.040041693 -0.018493498
-0.0019189523 0.040111575 -0.01726055
0.0020217679 0.04011599 -0.017306697
0.0059141703 0.040078871 -0.018656844
-0.0060221446 -0.040130019 -0.012337183
-0.0016068261 -0.040130019 -0.012337182
0.0028084924 -0.040130019 -0.012337183
-0.020054273 -0.035114821 -0.012363775
-0.016866479 -0.036058515 -0.012484548
-0.012718929 -0.037436094 -0.012470719
-0.0079584839 -0.038773734 -0.012384701
-0.0023649903 -0.039397463 -0.012374544
0.0023649621 -0.039400566 -0.012393162
0.0077599911 -0.038803972 -0.012344496
0.01265081 -0.037408337 -0.012418798
0.016887438 -0.036005322 -0.012549073
-0.02571922 -0.030642014 -0.012812994
-0.022590451 -0.032493651 -0.012500389
-0.019053621 -0.034387171 -0.012749156
0.019091781 -0.034302872 -0.012672463
0.022600386 -0.032435108 -0.012482452
0.02581358 -0.030569801 -0.012732356
-0.030474562 -0.025855575 -0.012499854
-0.028102038 -0.028036276 -0.012634005
0.028103258 -0.027881015 -0.012604394
0.030440753 -0.025712851 -0.012820713
-0.035030201 -0.021331364 -0.012691839
-0.03256784 -0.022749936 -0.012527539
0.029863004 -0.024905926 -0.013156669
0.03261739 -0.022613712 -0.01252789
-0.036018264 -0.016961919 -0.012476987
-0.034552652 -0.018921446 -0.012481268
0.034589272 -0.018756881 -0.012471395
0.035961505 -0.016904026 -0.012343027
-0.037908878 -0.012451709 -0.012488782
0.037703734 -0.012606508 -0.012460537
-0.040091559 -0.0064704046 -0.012556544
-0.038899224 -0.007603352 -0.012491336
0.038837049 -0.0075298124 -0.012583907
0.040070906 -0.0055264831 -0.013474432
-0.040382352 -0.0016952486 -0.012734685
-0.039410681 -0.0025770005 -0.01262211
0.039393574 -0.0025487894 -0.012588725
0.040332556 -0.0016067872 -0.012613226
-0.040283937 0.0018967286 -0.012809921
-0.039421633 0.0027435566 -0.01260244
0.039309695 0.002669984 -0.012696245
0.040243033 0.0020655459 -0.012486802
-0.040055085 0.006232108 -0.011877559
-0.038912021 0.0073567717 -0.01261507
0.038858261 0.0075500156 -0.012612568
0.040113628 0.0051446669 -0.011018361
-0.037753519 0.012595979 -0.012381196
0.037644222 0.012652619 -0.012232245
-0.03603458 0.016845664 -0.012579679
-0.034456909 0.018784426 -0.012786203
0.034405857 0.018506495 -0.012693872
0.03587465 0.016863892 -0.01245922
-0.032754701 0.022656033 -0.01249304
-0.029767832 0.024731714 -0.012610389
0.029526856 0.024851371 -0.012605799
0.032711327 0.022574956 -0.012474257
0.035118207 0.020565856 -0.013301725
-0.030404313 0.025752446 -0.012704711
-0.028316919 0.027691294 -0.012462725
0.028175533 0.027817486 -0.012439215
0.030471487 0.025588898 -0.012357608
-0.026066985 0.030641431 -0.012450236
-0.022511913 0.032708313 -0.012408258
-0.01900078 0.034496337 -0.012765314
0.019276772 0.034468122 -0.012871459
0.022376442 0.032745708 -0.012347519
0.025931451 0.030628016 -0.012658033
-0.020023081 0.035145134 -0.013653411
