# .PCD v0.7 - Point Cloud Data file format
VERSION 0.7
FIELDS x y z
SIZE 4 4 4
TYPE F F F
COUNT 1 1 1
WIDTH 737
HEIGHT 1
VIEWPOINT 0 0 0 1 0 0 0
POINTS 737
DATA ascii
-0.0030785988 -0.040130019 -0.093284532
0.0028084924 -0.040130019 -0.093284547
-0.022872504 -0.032126073 -0.095001213
-0.014839441 -0.035146631 -0.096241556
-0.0048607518 -0.036860187 -0.096602619
0.0051459931 -0.036807857 -0.096638292
0.014939437 -0.035215594 -0.096118651
0.022965139 -0.032016072 -0.095026486
-0.032304689 -0.022818433 -0.09525726
-0.025936786 -0.025889086 -0.097263478
-0.01491791 -0.024743402 -0.098838866
-0.0045613032 -0.02500687 -0.098835617
0.0051808944 -0.024888631 -0.098826267
0.01479882 -0.024829334 -0.098821893
0.025755988 -0.025854347 -0.097271785
0.032186691 -0.02288641 -0.09519282
-0.03531288 -0.014778193 -0.096243806
-0.025029832 -0.015041827 -0.098830126
-0.015040775 -0.014812192 -0.098820999
-0.0048374701 -0.014880316 -0.09881644
0.0052322713 -0.01476083 -0.09881033
0.015101242 -0.014942706 -0.098824061
0.024872188 -0.014997269 -0.098798975
0.035291709 -0.014775776 -0.096183129
-0.040338926 -0.0021692065 -0.094417378
-0.036684293 -0.0051013203 -0.096723229
-0.024881478 -0.0048710457 -0.098807648
-0.01490716 -0.004969446 -0.098806962
-0.0048792763 -0.0047677285 -0.098799184
0.0052288389 -0.0048531871 -0.098802552
0.015133088 -0.0050083445 -0.098795928
0.024991425 -0.0049823252 -0.098793522
0.036678515 -0.0051913857 -0.096713617
0.040253047 -0.0019372335 -0.09402065
-0.040287111 0.0030405789 -0.094423316
-0.036671266 0.0051847994 -0.096738808
-0.024936607 0.0050025084 -0.098801561
-0.014928768 0.0049998681 -0.098802671
-0.0049333759 0.0052234367 -0.098790571
0.0052319337 0.0050974307 -0.098805882
0.015108607 0.0050284718 -0.09878546
0.024941666 0.0049912268 -0.098786935
0.036660392 0.0051592281 -0.0967246
0.040268745 0.0017888686 -0.094863392
-0.035249092 0.01483653 -0.096321873
-0.024841016 0.014976572 -0.09881033
-0.014922913 0.015107345 -0.098795854
-0.0047641355 0.015143745 -0.098788306
0.005210259 0.015074113 -0.098785408
0.015192837 0.015119254 -0.098779358
0.02499635 0.015006707 -0.098779902
0.035265032 0.014817833 -0.096178666
-0.032292146 0.022882722 -0.095164396
-0.025994837 0.025753463 -0.097222395
-0.014965543 0.025239233 -0.098777615
-0.0046704006 0.025068013 -0.098773398
0.0051855543 0.02494741 -0.098788664
0.01488663 0.02521269 -0.098773777
0.025899446 0.025792073 -0.097194478
0.032265414 0.022868231 -0.095193379
-0.023126392 0.032080676 -0.095262982
-0.014804086 0.035462916 -0.096189044
-0.0048476811 0.036928598 -0.096771732
0.005239652 0.036983158 -0.096736051
0.014882932 0.035475433 -0.096155435
0.023047794 0.032072656 -0.095285907
-0.0031837248 0.040172517 -0.094256304
0.0031299782 0.040173478 -0.094071515
-0.0030785988 -0.040130019 -0.084453925
0.0028084924 -0.040130019 -0.084453918
-0.023169683 -0.032128587 -0.084987886
-0.015146964 -0.036468141 -0.085076109
-0.0049849451 -0.039140612 -0.084983222
0.0050809458 -0.039127924 -0.085021064
0.015301493 -0.036379255 -0.085076146
0.023213275 -0.032085724 -0.085008204
-0.032402433 -0.023087459 -0.085037388
-0.028123543 -0.027929744 -0.085110858
0.028055841 -0.027933281 -0.085061036
0.032382499 -0.023018003 -0.08517921
-0.036714628 -0.01501839 -0.08498174
0.036623456 -0.015124589 -0.084990948
-0.040370673 -0.002086927 -0.085087553
-0.039142448 -0.0053145299 -0.084915325
0.039106209 -0.0053637167 -0.085005283
0.040293802 -0.0015905369 -0.084898248
-0.040262699 0.0028928353 -0.084936284
-0.039097339 0.0055994252 -0.085030869
0.039096918 0.0054728501 -0.085084088
0.040214527 0.0021834765 -0.084934816
-0.036592003 0.015071407 -0.084988005
0.036520526 0.015161192 -0.084981114
-0.032425597 0.02302829 -0.08504311
-0.028113041 0.027931523 -0.084990457
0.028145781 0.027896058 -0.085001603
0.032393724 0.023035569 -0.085095987
-0.023314299 0.032233197 -0.085066237
-0.015033838 0.036792479 -0.085059285
-0.0050519644 0.039406203 -0.085083038
0.0053705941 0.03938869 -0.085067041
0.015090248 0.036763832 -0.085038759
0.023201175 0.032262366 -0.085021257
-0.0030527499 0.040151894 -0.084527314
0.0028631066 0.04013529 -0.084477536
-0.0030785988 -0.040130019 -0.075623304
0.0028084924 -0.040130019 -0.075623304
-0.023057774 -0.032218263 -0.075119153
-0.015086142 -0.036490668 -0.075150862
-0.004967147 -0.039151881 -0.074937463
0.0050716731 -0.039141204 -0.074923307
0.01504551 -0.036492612 -0.075078756
0.023067608 -0.032147113 -0.075108446
-0.032423444 -0.023090923 -0.075024106
-0.028083472 -0.027955163 -0.074989222
0.028129475 -0.027862927 -0.075087361
0.032406744 -0.023021597 -0.075085647
-0.036742821 -0.014922805 -0.075047202
0.036688633 -0.01492167 -0.075044207
-0.040350635 -0.0022241718 -0.075082205
-0.039153792 -0.0053965924 -0.075095206
0.039133631 -0.0052864966 -0.075100303
0.040292796 -0.0016580482 -0.075062297
-0.040299036 0.0027824955 -0.074815519
-0.039098389 0.0055667064 -0.075235985
0.039082799 0.0055524628 -0.075087681
0.040270966 0.001876457 -0.074715562
-0.036591414 0.015123922 -0.074960731
0.036547177 0.015116777 -0.075095885
-0.032413039 0.023059076 -0.07511577
-0.028178222 0.02784881 -0.074988969
0.02818941 0.027807374 -0.075153969
0.032365035 0.023065219 -0.07512524
-0.023245934 0.032278739 -0.074945278
-0.015141871 0.036733624 -0.075004406
-0.0051580328 0.039386421 -0.075092442
0.0054309843 0.039375089 -0.075079434
0.015200213 0.036698755 -0.075015701
0.023307504 0.032199364 -0.074939087
-0.0035110759 0.040128596 -0.074498996
0.003083145 0.040120605 -0.074596219
-0.0030785988 -0.040130019 -0.065320916
0.0028084924 -0.040130019 -0.065320909
-0.02325605 -0.03210197 -0.064976424
-0.015159173 -0.036448836 -0.065084502
-0.0049328944 -0.039152265 -0.065059543
0.0050202888 -0.039148152 -0.065066203
0.01518001 -0.036416173 -0.06507995
0.023201793 -0.032086268 -0.06483952
-0.032433845 -0.023101592 -0.064967833
-0.028137693 -0.027903648 -0.065081611
0.028096205 -0.02789313 -0.065241642
0.03240541 -0.023006596 -0.06489595
-0.036700685 -0.01508031 -0.065070719
0.036649 -0.015037138 -0.065061748
-0.04035205 -0.0022558859 -0.064947471
-0.039144959 -0.0054101218 -0.065135926
0.039093841 -0.0053980672 -0.065168113
0.040283129 -0.001944944 -0.06511417
-0.040298693 0.0025545438 -0.065073229
-0.03910609 0.0054203831 -0.065153204
0.039083119 0.0055151908 -0.065057002
0.040217042 0.0018853997 -0.064833291
-0.036659256 0.014953644 -0.065002002
0.036598809 0.014931073 -0.064965345
-0.032357816 0.023189219 -0.064916991
-0.028140789 0.027883725 -0.065079495
0.028097745 0.027871354 -0.06510485
0.032404426 0.023042819 -0.0649902
-0.023352692 0.032206912 -0.064945199
-0.015276069 0.036671992 -0.065089136
-0.0052985311 0.0393712 -0.065005735
0.0056256498 0.039349008 -0.065089159
0.015253281 0.036680289 -0.065098435
0.023253908 0.03224621 -0.06496577
-0.0033017804 0.040130928 -0.064765751
0.0033491647 0.04013304 -0.064910993
-0.0030785988 -0.040130019 -0.055018518
0.0028084924 -0.040130019 -0.055018518
-0.023177229 -0.032147348 -0.05500881
-0.015171234 -0.036444921 -0.055055149
-0.0051443689 -0.039116565 -0.055029932
0.0051600905 -0.039109565 -0.055021692
0.015159752 -0.036429446 -0.055054728
0.023104599 -0.032138173 -0.054975167
-0.032396358 -0.023117047 -0.05509242
-0.028120555 -0.027921084 -0.054894183
0.028039536 -0.02790289 -0.054861117
0.032362156 -0.023047132 -0.05520346
-0.036685087 -0.015121942 -0.054996952
0.03661729 -0.015095509 -0.054992191
-0.040346276 -0.0024063275 -0.055172656
-0.039142251 -0.0054134391 -0.055044983
0.039106403 -0.0054390579 -0.055168543
0.040326435 -0.0018319471 -0.054939535
-0.040304393 0.0027291249 -0.055172097
-0.039112549 0.0054933862 -0.055042747
0.039053857 0.0055536651 -0.055077098
0.040256966 0.0020436801 -0.054880381
-0.036604155 0.015113668 -0.055023555
0.036587041 0.014996415 -0.054918312
-0.032297611 0.023257174 -0.055073529
-0.028157858 0.027846288 -0.055149242
0.028155558 0.027819082 -0.055123556
0.032346897 0.023099884 -0.054989841
-0.023391934 0.032194108 -0.05505307
-0.015148696 0.036757305 -0.055078812
-0.0051576793 0.039404236 -0.05511887
0.0053826934 0.039397649 -0.05506837
0.015207933 0.036703154 -0.055035129
0.023378525 0.032167997 -0.055171572
-0.0033439025 0.040131357 -0.05507908
0.003167876 0.04012328 -0.055100869
-0.0030785988 -0.040130019 -0.044716131
0.0028084924 -0.040130019 -0.044716127
-0.023207594 -0.03214509 -0.045054004
-0.01515189 -0.036492016 -0.045098417
-0.005015315 -0.039136607 -0.044959329
0.0050911754 -0.039132562 -0.04498196
0.015203889 -0.03641966 -0.044979051
0.02320493 -0.032070883 -0.044940311
-0.032335795 -0.023192115 -0.044892829
-0.028099142 -0.027998138 -0.04493117
0.028109359 -0.027910221 -0.045012113
0.032355983 -0.023035852 -0.045147631
-0.036724549 -0.01504559 -0.044975411
0.036606167 -0.015060599 -0.044984918
-0.040364105 -0.0022117372 -0.045090787
-0.039156836 -0.0054360372 -0.04489648
0.039092444 -0.0054643839 -0.044963438
0.040271338 -0.0017618753 -0.045221359
-0.040270682 0.0027748924 -0.044813484
-0.039096244 0.005476818 -0.044788294
0.03908284 0.0055232565 -0.044954199
0.040255684 0.001778521 -0.044965249
-0.036592856 0.015211903 -0.045055911
0.03654626 0.015095206 -0.044970028
-0.032352272 0.023184579 -0.045061886
-0.02813538 0.027873533 -0.044960409
0.028056132 0.027886217 -0.044996928
0.032229859 0.023239691 -0.045025039
-0.023414765 0.032182593 -0.044987604
-0.015313398 0.036661308 -0.045060888
-0.0052445279 0.039364833 -0.044963285
0.0055055572 0.039345652 -0.044942137
0.015250507 0.036672749 -0.04500623
0.023330225 0.032187689 -0.045020364
-0.0031241362 0.040114418 -0.045364168
0.0034550061 0.040112976 -0.045390639
-0.0030785988 -0.040130019 -0.034413733
0.0028084924 -0.040130019 -0.034413736
-0.023057422 -0.032190915 -0.03507046
-0.015117827 -0.036468234 -0.034997787
-0.0050923298 -0.0391226 -0.035049982
0.0051570213 -0.039111987 -0.034984093
0.01516119 -0.036422364 -0.03497313
0.023105588 -0.032095749 -0.035021376
-0.032487586 -0.023016298 -0.034831796
-0.028155265 -0.027865348 -0.034918606
0.028128466 -0.027770571 -0.035024695
0.032520678 -0.0228152 -0.034996103
-0.036727779 -0.015019125 -0.03504898
0.036656253 -0.015011853 -0.03505446
-0.040341482 -0.0020340786 -0.035003789
-0.039143045 -0.0055078389 -0.035251237
0.039075643 -0.005376114 -0.035008505
0.040279478 -0.0017939799 -0.034974374
-0.040279664 0.0029277601 -0.035085998
-0.039112475 0.0057435576 -0.03523596
0.039049171 0.0055619949 -0.035103753
0.040265009 0.0020057699 -0.034714453
-0.036564432 0.01522877 -0.035040062
0.036543 0.015048122 -0.034939811
-0.032393079 0.023139298 -0.034940004
-0.028205652 0.027854787 -0.035056502
0.028161816 0.027813112 -0.035009965
0.032354809 0.023081245 -0.035052821
-0.023412194 0.032181777 -0.034954589
-0.015214331 0.036728375 -0.035070062
-0.0054041119 0.03936398 -0.035063554
0.005620596 0.039348569 -0.034980185
0.015319849 0.036652543 -0.035053063
0.023373261 0.032143373 -0.035026629
-0.0027031691 0.040130407 -0.03461973
0.0027709478 0.0401228 -0.034545887
-0.0030785988 -0.040130019 -0.025583113
0.0028084924 -0.040130019 -0.025583116
-0.023178173 -0.032133069 -0.025128996
-0.015142216 -0.036472227 -0.024988163
-0.0050286278 -0.0391137 -0.025065491
0.0050722566 -0.039116241 -0.025115751
0.015091606 -0.036438823 -0.025021983
0.023181211 -0.032063536 -0.025125654
-0.03242876 -0.023095688 -0.025023509
-0.028110994 -0.02796684 -0.025030792
0.028170826 -0.027785996 -0.025058471
0.032415666 -0.02295373 -0.025135636
-0.036743633 -0.015036478 -0.025014302
0.036682133 -0.014914225 -0.025132788
-0.040341996 -0.0021485472 -0.024941854
-0.0391571 -0.005462266 -0.025082223
0.039078441 -0.0054355725 -0.024947245
0.0403032 -0.001818714 -0.025241505
-0.040290836 0.0027820407 -0.025029685
-0.039089706 0.0056796637 -0.024992088
0.039049353 0.005589101 -0.025047245
0.040268522 0.0021759488 -0.024866819
-0.036637202 0.015113983 -0.025044952
0.036519222 0.015122917 -0.025020467
-0.032452974 0.02307263 -0.025032844
-0.028129837 0.02792671 -0.025050355
0.028051594 0.02792936 -0.025142118
0.032384794 0.02303032 -0.025053725
-0.0232461 0.032299913 -0.024944747
-0.015232383 0.036749523 -0.025159884
-0.0053461022 0.039371792 -0.025025386
0.0055374843 0.039366353 -0.025007328
0.01511667 0.036759544 -0.025081363
0.023187328 0.032285415 -0.025078475
-0.0033228309 0.040096398 -0.024538185
0.0033302342 0.040101241 -0.024879925
-0.0030785988 -0.040130019 -0.015280721
0.0028084924 -0.040130019 -0.015280724
-0.023208685 -0.032149561 -0.015027859
-0.015336332 -0.036400143 -0.015036734
-0.0052389819 -0.039089143 -0.014961787
0.0052226759 -0.039101843 -0.014903886
0.015322499 -0.03635079 -0.015018553
0.023157725 -0.032092813 -0.01517988
-0.032345846 -0.023183418 -0.014904589
-0.028150456 -0.027957167 -0.014973344
0.02808428 -0.027874431 -0.015172877
0.032333452 -0.023034647 -0.01508521
-0.036726281 -0.015083559 -0.014931944
0.036615208 -0.015073405 -0.014974345
-0.040350422 -0.0021606472 -0.015021371
-0.03912754 -0.0055478765 -0.014997661
0.039076757 -0.0054412917 -0.014989501
0.040308572 -0.0018710534 -0.014778707
-0.040272377 0.0025036705 -0.015082678
-0.039114181 0.0056511732 -0.014956059
0.039043542 0.0055372459 -0.0150362
0.040238671 0.0021121525 -0.015090454
-0.036680855 0.015017689 -0.014958818
0.036576912 0.014979227 -0.014844297
-0.032453995 0.023038164 -0.015077422
-0.028219339 0.027846348 -0.015141898
0.02818404 0.027796077 -0.015074575
0.032414332 0.022980966 -0.014920451
-0.023242954 0.032299727 -0.014776451
-0.015082936 0.036782965 -0.015025998
-0.0052424623 0.039368667 -0.014996157
0.0055572898 0.039338343 -0.015049635
0.015112138 0.036737002 -0.014968288
0.023179378 0.032266416 -0.014915576
-0.0029632722 0.040100265 -0.014749656
0.0031558322 0.040099461 -0.014840555
-0.0030785988 -0.040130019 -0.0049783313
0.0028084924 -0.040130019 -0.0049783313
-0.023197519 -0.032163039 -0.0049807578
-0.015286397 -0.036409885 -0.0050225616
-0.0050991857 -0.03910524 -0.005067037
0.0051729837 -0.039088547 -0.004934866
0.015322 -0.036352176 -0.0051071029
0.023153756 -0.03206753 -0.0049868799
-0.032374952 -0.023199366 -0.0050366097
-0.028096579 -0.027971456 -0.0049235118
0.027977118 -0.027995201 -0.004990147
0.032318987 -0.023036214 -0.0051470436
-0.03670438 -0.015125832 -0.0049136486
0.036605276 -0.015024872 -0.0049882405
-0.040340088 -0.0023051065 -0.0050554071
-0.039142501 -0.0056432174 -0.0051999581
0.039066926 -0.0053737606 -0.0049968287
0.040328391 -0.001878367 -0.0050504175
-0.040336564 0.0024866855 -0.0053191567
-0.039119992 0.0055954815 -0.005180689
0.039035507 0.0055243508 -0.0052176025
0.040293071 0.001697069 -0.0052622831
-0.036696713 0.014972846 -0.0049815685
0.036504637 0.01509506 -0.0049072816
-0.032489147 0.023028132 -0.0050796075
-0.0282706 0.027796783 -0.0049260501
0.028114118 0.027796576 -0.004871171
0.032365277 0.02302641 -0.0050606616
-0.023377659 0.03222315 -0.0049808607
-0.015073249 0.036801878 -0.0049319426
-0.0053288252 0.039364658 -0.0048794504
0.0055074864 0.039350729 -0.0048957984
0.015019397 0.036774009 -0.0048946291
0.023285724 0.032240745 -0.0049082702
-0.0030172868 0.040100392 -0.0049243798
0.0031523963 0.040101297 -0.0047959266
-0.0030785988 -0.040130019 0.0053240601
0.0028084924 -0.040130019 0.0053240596
-0.023312965 -0.032104366 0.0049787802
-0.015276493 -0.036434337 0.0050083832
-0.0051145195 -0.03913014 0.0052151363
0.0051215813 -0.039128628 0.0052494602
0.015203333 -0.036396343 0.0049695466
0.023231575 -0.032039266 0.0051385202
-0.032367472 -0.02319276 0.0051293387
-0.02807547 -0.02801979 0.0053053983
0.028097313 -0.027859399 0.0052066883
0.03232944 -0.023048265 0.0050996859
-0.036694657 -0.015157705 0.0050193248
0.036604635 -0.015049458 0.0050247032
-0.040346067 -0.0021696002 0.0045102099
-0.039157696 -0.0054874271 0.004926804
0.039091829 -0.0052908994 0.0048507499
0.040326294 -0.0019266295 0.0046640881
-0.040272228 0.0025578341 0.0048223236
-0.039136723 0.0055265673 0.0048776739
0.039059009 0.0054367855 0.0047959755
0.040221393 0.0021404282 0.0049717794
-0.036672615 0.01502932 0.0050460026
0.036586631 0.01493458 0.0051270002
-0.032461662 0.023074141 0.0049952632
-0.028315756 0.02769509 0.0049451087
0.028151989 0.027771145 0.0050444058
0.032417476 0.022942048 0.004991469
-0.023355408 0.032251503 0.0050167791
-0.015104605 0.036779158 0.005113984
-0.0053153122 0.03937386 0.0050559216
0.0054546823 0.039354689 0.0050787535
0.015104587 0.036721397 0.0051314305
0.023320116 0.032191072 0.0050820597
-0.0031521013 0.040101744 0.0048007909
0.0034549038 0.040101472 0.0045267181
-0.0030785988 -0.040130019 0.015626453
0.0028084924 -0.040130019 0.015626451
-0.023159212 -0.032173593 0.014924367
-0.015331816 -0.036392342 0.015071669
-0.0050696312 -0.039094843 0.014971424
0.0051964615 -0.039070189 0.014962972
0.015348146 -0.036320969 0.015110206
0.023087608 -0.032092664 0.015173955
-0.032408539 -0.02315161 0.015126427
-0.028174585 -0.027931619 0.015239166
0.028051937 -0.027916178 0.01507512
0.032283291 -0.023055172 0.015013948
-0.036770366 -0.015033394 0.015029541
0.036592223 -0.015070964 0.015052359
-0.040344253 -0.0022463859 0.015444803
-0.039156135 -0.0055589536 0.015088464
0.039058518 -0.0053077894 0.015131315
0.040301315 -0.0018887174 0.015177147
-0.040289693 0.0026708993 0.015393861
-0.039116226 0.0057133823 0.015060223
0.039016243 0.0055473149 0.015041591
0.040249366 0.001983088 0.015450641
-0.036647927 0.015124489 0.014935459
0.036532369 0.015059912 0.015046332
-0.032488577 0.0230421 0.014965319
-0.028141782 0.027945161 0.015017123
0.028184073 0.02777518 0.015155568
0.032345764 0.023062067 0.015013602
-0.02341067 0.032243177 0.015128438
-0.015095539 0.036800727 0.015170215
-0.0052339942 0.039380509 0.015127002
0.0055176015 0.039349087 0.015102611
0.015056571 0.036764 0.015111752
0.023275319 0.032224987 0.015064344
-0.0030058397 0.040099125 0.01533412
0.003231697 0.040097613 0.0150435
-0.0030785988 -0.040130019 0.024457075
0.0028084924 -0.040130019 0.024457073
-0.023244908 -0.032109924 0.024856484
-0.01519489 -0.03645853 0.024995552
-0.0050355536 -0.03912558 0.024970038
0.0051057762 -0.039123718 0.024988808
0.015190238 -0.03638991 0.025010388
0.023135683 -0.03206306 0.025130024
-0.032463524 -0.023105325 0.025058338
-0.028206825 -0.027859788 0.024994645
0.028070375 -0.027873518 0.02487853
0.032464489 -0.022836981 0.025005093
-0.03674509 -0.01508995 0.025050772
0.036649469 -0.014915568 0.024946503
-0.040311798 -0.0021891042 0.024918882
-0.039145153 -0.0055253534 0.024849003
0.039050769 -0.0054827533 0.025004569
0.040292677 -0.0019665442 0.025006432
-0.04028726 0.0024957699 0.025165373
-0.039113145 0.0057187229 0.02499252
0.039010018 0.0056385347 0.024988586
0.040297046 0.0020784412 0.025104342
-0.036674496 0.015075266 0.024825111
0.036538921 0.015034561 0.024997033
-0.032449726 0.023119245 0.024908176
-0.028161991 0.027951486 0.025031134
0.028014317 0.027954819 0.024986623
0.032429576 0.022913462 0.025052624
-0.023207471 0.032336313 0.025023667
-0.015173241 0.036783781 0.025166957
-0.0054273382 0.039369375 0.024903597
0.0056020436 0.03934573 0.024887621
0.015219405 0.036703881 0.025157006
0.022971433 0.032394957 0.024940178
-0.0031512636 0.040097483 0.024956154
0.003243309 0.040099032 0.02487324
-0.0030785988 -0.040130019 0.034759466
0.0028084924 -0.040130019 0.034759466
-0.023131156 -0.032195635 0.034965564
-0.014999445 -0.036565021 0.03501007
-0.0051579485 -0.039127775 0.03491354
0.0051946249 -0.039113108 0.034852084
0.015061029 -0.036451619 0.035037652
0.023033699 -0.032145448 0.034933139
-0.032541841 -0.023018397 0.034982163
-0.02818625 -0.027914776 0.035016514
0.02806255 -0.027866188 0.035032973
0.032413308 -0.022919504 0.034856774
-0.036779981 -0.015000553 0.03503852
0.036574777 -0.015060801 0.035037432
-0.040331181 -0.0020518042 0.034964133
-0.0391987 -0.0055988836 0.034652971
0.039096374 -0.0052090175 0.034871388
0.040328614 -0.0015567585 0.035146002
-0.040281914 0.002544832 0.035048794
-0.039145898 0.0056126937 0.034721982
0.039041046 0.005449648 0.034859203
0.040235896 0.0023569332 0.035601873
-0.0366509 0.015118681 0.034908604
0.036482826 0.015106712 0.034999017
-0.032437142 0.023113102 0.034953743
-0.028226992 0.027850119 0.035050161
0.028062966 0.02785497 0.03495891
0.032352455 0.023049628 0.034985952
-0.023416102 0.032172736 0.034919929
-0.015276319 0.036693811 0.035046976
-0.0052626333 0.039351396 0.034982026
0.0055788923 0.039329674 0.034903277
0.015326601 0.036621444 0.03503881
0.023408242 0.032089386 0.03487841
-0.0028539209 0.040129077 0.034769997
0.0028222615 0.040120713 0.03459001
-0.0030785988 -0.040130019 0.042118322
0.0028084924 -0.040130019 0.042118318
-0.022008536 -0.031580046 0.042445041
-0.014930138 -0.033826709 0.044787183
-0.0049240445 -0.036464628 0.044928692
0.0051017473 -0.036455996 0.044909682
0.014885689 -0.033803508 0.044809774
0.022140464 -0.031405222 0.042344011
-0.031725273 -0.022038732 0.042804338
-0.025946088 -0.025999613 0.045626413
-0.01904754 -0.029171579 0.048759751
0.019052522 -0.029068237 0.048703682
0.025954746 -0.025851434 0.045726396
0.031683821 -0.022046333 0.04268159
-0.034282561 -0.015037273 0.045013826
-0.029477987 -0.019428561 0.048970297
0.029400242 -0.019408302 0.048784841
0.034247659 -0.015001342 0.044973519
-0.040267535 -0.0020179902 0.040778242
-0.037320551 -0.0050575733 0.044952683
0.037194137 -0.0050967685 0.045034871
0.040261403 -0.0017443389 0.040944614
-0.040368307 0.0028989783 0.040974785
-0.037544027 0.0051297527 0.04496346
0.037471071 0.0052679647 0.044937238
0.040387549 0.0028268434 0.041122321
-0.034931894 0.015150104 0.045061324
-0.029997529 0.019494502 0.048984934
0.02976176 0.019545574 0.049282745
0.034946095 0.015119654 0.045001868
-0.031890724 0.022664702 0.043682236
-0.02704663 0.026646033 0.04597044
0.026928328 0.026649069 0.046031311
0.031892437 0.022586904 0.043761205
-0.022955185 0.03194895 0.043676708
-0.015042262 0.035695679 0.045022614
-0.0052132234 0.03815265 0.045686249
0.0053537213 0.03813535 0.045670491
0.015135455 0.035639875 0.04504418
0.022897307 0.031977545 0.043690965
-0.0037366152 0.040544707 0.041656546
0.0036397136 0.040524807 0.04172042
-0.012709146 -0.031063866 0.052086063
-0.0046803979 -0.032017164 0.054125696
0.0047159852 -0.032038406 0.053967722
0.012549731 -0.030987045 0.052177869
-0.02339093 -0.023115039 0.054182433
-0.015800957 -0.027425615 0.055899605
-0.0061253179 -0.029390663 0.058633927
0.0064493627 -0.029343506 0.058424231
0.015980031 -0.027085001 0.055864643
0.02333408 -0.022931511 0.05399074
-0.031457897 -0.012877902 0.052735686
-0.027611952 -0.016286749 0.056214601
0.02743795 -0.015996061 0.05601421
0.031432241 -0.012768796 0.052320957
-0.032803573 -0.0048708199 0.054843634
-0.029490799 -0.0080831079 0.059291471
0.029394737 -0.0069985501 0.059063401
0.032540619 -0.0047415765 0.054633457
-0.033033904 0.0050053387 0.05484898
-0.02956978 0.0068601575 0.059598483
0.02960258 0.0062808213 0.059233502
0.032759856 0.0049180626 0.054654524
-0.03170548 0.013619537 0.053322192
-0.028279835 0.016588738 0.056842692
0.027974103 0.016304759 0.056764338
0.031606045 0.013547556 0.05290797
-0.030886754 0.02005166 0.051191136
-0.024080424 0.024282685 0.05440478
-0.017175548 0.028227877 0.057033677
0.0097525083 0.029720485 0.059084918
0.017143106 0.028030261 0.056857269
0.023972893 0.024095401 0.054253455
0.030578475 0.020180011 0.050325274
-0.020018145 0.030570809 0.050027542
-0.014079595 0.031823501 0.053843766
-0.0049804603 0.033878729 0.054884493
0.0051569198 0.033769745 0.054958396
0.013820681 0.031832162 0.053776287
0.020840777 0.030334707 0.050408483
-0.02109785 -0.020868508 0.061615393
-0.014731372 -0.023429617 0.064617701
-0.0049551851 -0.026693488 0.064949796
0.0050935238 -0.026511937 0.064968802
0.014545778 -0.023184903 0.064431667
0.020967411 -0.020743433 0.060995977
-0.024080582 -0.014637936 0.064623125
-0.018735982 -0.018519882 0.068044484
0.01844825 -0.018203015 0.067462243
0.023629203 -0.014415644 0.064351551
-0.030579016 -0.0028982337 0.061091479
-0.02764515 -0.0051992852 0.065528966
0.027040508 -0.0050700265 0.065153383
0.030418148 -0.0025357534 0.060788944
-0.030673832 0.0037978541 0.061160419
-0.027901024 0.0053936401 0.06573499
0.027278475 0.0052135144 0.065369964
0.030356377 0.0030902666 0.06091072
-0.030323042 0.010302309 0.060321115
-0.024769641 0.015199724 0.06495028
-0.01919823 0.019296162 0.068856731
0.018993935 0.018732529 0.068568692
0.024235789 0.014929534 0.064752482
-0.021571357 0.021737566 0.062478136
-0.015116328 0.025137907 0.065021902
-0.0054545146 0.028238885 0.06628634
0.00540506 0.028139288 0.066182584
0.014942842 0.024828913 0.064870976
0.021355322 0.02149179 0.06226515
-0.011144035 0.030391574 0.060138315
-0.0041784095 0.030813141 0.061762463
0.0042959158 0.030809369 0.061618894
0.011440059 0.030108208 0.060452156
-0.011995989 -0.021212554 0.072074912
-0.0046437788 -0.022234168 0.074392796
0.0046467963 -0.022124063 0.074200287
0.011657711 -0.02094828 0.071675226
-0.021532804 -0.012167488 0.072760157
-0.015890764 -0.016316583 0.0753747
-0.0072612399 -0.01940627 0.078657255
0.0073194746 -0.019284671 0.078331813
0.015475865 -0.015763914 0.075159833
0.02109796 -0.011605524 0.072295524
-0.023431133 -0.0048944768 0.074600972
-0.019413613 -0.0093173757 0.078251481
0.019229604 -0.0080866609 0.078153454
0.022597337 -0.0045452053 0.07421539
-0.023803785 0.0052027758 0.074622601
-0.019614441 0.008682766 0.079600587
0.019426171 0.0079393778 0.078717127
0.022808159 0.0051020631 0.074322715
-0.021837573 0.01296389 0.07331381
-0.017048566 0.016944736 0.075960428
0.0093062324 0.01972617 0.078469545
0.01652959 0.016360188 0.075722665
0.021371465 0.012666196 0.07254874
-0.013039137 0.022031674 0.073334649
-0.0048861448 0.024250042 0.07480222
0.0050360584 0.023971867 0.074830726
0.012619516 0.021819701 0.072968163
-0.01104039 -0.020376045 0.085704006
-0.0049685384 -0.021828683 0.0852523
0.0048904209 -0.021589633 0.085382901
0.01049505 -0.020125072 0.085011706
-0.020717049 -0.011315166 0.085525185
-0.015752584 -0.016131004 0.084772229
-0.0054838788 -0.019105593 0.081089199
0.0065501737 -0.018811971 0.081693918
0.01518323 -0.015343957 0.085044235
0.020396991 -0.010577544 0.08548902
-0.02266453 -0.004750574 0.084842801
-0.019003989 -0.0083500342 0.080591336
0.019208584 -0.0071940548 0.083219618
0.021510495 -0.0045312941 0.085277244
-0.022856938 0.0051890453 0.085031539
-0.019676384 0.0086935079 0.081548885
0.019494556 0.007185597 0.082558371
0.021644877 0.0048186919 0.085352704
-0.020890061 0.011915963 0.085330501
-0.016727958 0.016634317 0.084873006
-0.0096497377 0.019377999 0.081221893
0.0093912752 0.019322161 0.081314176
0.016205298 0.015606469 0.085050739
0.020370338 0.011051535 0.085581213
-0.011852327 0.021092203 0.085472934
-0.0050452985 0.023196287 0.084993981
0.0050373417 0.022895474 0.085045196
0.011080561 0.020741833 0.085618943
-0.011045353 -0.020388799 0.094223365
-0.0049010213 -0.021781188 0.095179774
0.0048363819 -0.021588167 0.095011547
0.010426653 -0.020152699 0.094162673
-0.020698322 -0.01131138 0.094354868
-0.015146554 -0.015422142 0.096170828
-0.0048487815 -0.015008248 0.098790847
0.0053723818 -0.015237705 0.098639108
0.014813819 -0.014942117 0.095800884
0.020349668 -0.010577111 0.093558922
-0.022560542 -0.0048621404 0.095426612
-0.014978212 -0.0049602557 0.098797202
-0.0049329791 -0.004964835 0.098809011
0.0051670703 -0.0050172233 0.098816894
0.015548062 -0.0052650338 0.09839344
0.021575058 -0.0043748314 0.095090345
-0.02264104 0.0050943885 0.095668532
-0.015018142 0.0051937029 0.098781683
-0.0049906089 0.0051373253 0.09878511
0.0050259274 0.0050517307 0.098783106
0.015360067 0.0051924819 0.098665319
0.021661909 0.0048836325 0.095083646
-0.020885769 0.011820548 0.094602719
-0.015696462 0.015646584 0.096487872
-0.0050029224 0.015013418 0.098774843
0.0052188663 0.014997142 0.098779552
0.015489184 0.015215589 0.096046783
0.020363813 0.010976068 0.094433829
-0.011721631 0.021187482 0.094730124
-0.0047853929 0.022899888 0.095570259
0.0050715767 0.022657359 0.095381975
0.010980325 0.020807991 0.094848387
